# .PCD v0.7 - Point Cloud Data file format
VERSION 0.7
FIELDS x y z rgb
SIZE 4 4 4 4
TYPE F F F F
COUNT 1 1 1 1
WIDTH 1046
HEIGHT 1
VIEWPOINT 0 0 0 1 0 0 0
POINTS 1046
DATA ascii
3.4165435 -0.28242385 0.32838324 1.1910178e-38
3.47051 -0.27608779 0.3165918 1.5769406e-38
3.516607 -0.28025931 0.32477251 1.4286709e-38
3.5843301 -0.2577256 0.32404333 2.0835486e-38
2.697454 -0.23854344 0.30493844 1.3900944e-38
2.919858 -0.22272885 0.33746731 1.3533249e-38
2.9587889 -0.24738756 0.33222222 1.344141e-38
3.2387276 -0.23291253 0.3299908 9.1468328e-39
3.27198 -0.22518778 0.32546815 9.241192e-39
3.3292978 -0.2241587 0.32457298 1.402058e-38
3.3759978 -0.22204591 0.32629827 1.45752e-38
3.4311595 -0.23254226 0.33504266 1.0533732e-38
3.475064 -0.23088658 0.33164129 1.4302213e-38
3.5143406 -0.2122169 0.32004356 1.3455147e-38
3.5666225 -0.2255511 0.33297876 1.9820614e-38
2.6988797 -0.19679736 0.30919927 1.3532161e-38
2.8975101 -0.18423373 0.34201574 1.3809833e-38
3.1243701 -0.18046932 0.33278438 6.0744439e-39
3.183871 -0.18890104 0.32056874 8.7769713e-39
3.2263176 -0.18219967 0.30710569 8.6912665e-39
3.2733202 -0.17626363 0.32943982 9.972262e-39
3.3220127 -0.17712343 0.3171604 1.097884e-38
3.3729467 -0.17575651 0.32883841 1.0803828e-38
3.4124417 -0.16428393 0.32426783 1.3198397e-38
3.4691353 -0.17932118 0.32135201 1.8809708e-38
3.5223866 -0.17567022 0.32840636 7.0115552e-39
0.7637642 -0.12707962 0.3019115 1.6965076e-38
2.6998076 -0.14488848 0.31165987 1.3624717e-38
2.8725255 -0.12051814 0.3230122 1.1610495e-38
2.9303501 -0.11449853 0.30392763 8.9577528e-39
2.999979 -0.11744902 0.31797534 1.2258405e-38
3.022548 -0.13119088 0.34030721 8.3145498e-39
3.0775812 -0.12366637 0.31920615 9.5879728e-39
3.1187043 -0.12889048 0.32897741 8.3098596e-39
3.1764038 -0.13317747 0.32579949 1.0609336e-38
3.2361279 -0.13955019 0.33199015 1.0054719e-38
3.2837431 -0.13486022 0.32240763 8.8688054e-39
3.3213494 -0.1157435 0.32587689 9.147916e-39
3.3687263 -0.13170709 0.34156239 1.0073839e-38
3.4324408 -0.12276344 0.33067945 1.6237605e-38
3.4797819 -0.11720487 0.32184061 1.7245263e-38
3.5203009 -0.10936888 0.34278476 2.120319e-38
3.5967884 -0.1448368 0.31259459 7.8546562e-39
3.6457705 -0.12393348 0.3356173 8.6847784e-39
3.6881902 -0.11317044 0.32421994 8.7769741e-39
0.73312128 -0.092503935 0.31964213 1.6963632e-38
2.6999173 -0.09258616 0.31785852 1.3164465e-38
2.7003598 -0.062498719 0.32277721 1.3809474e-38
2.7812643 -0.053482175 0.32697657 1.3718003e-38
2.8327913 -0.069216855 0.32044268 1.2521272e-38
2.8877983 -0.068445884 0.33531839 1.3079856e-38
2.9291384 -0.076124705 0.32520089 1.2807599e-38
2.9752877 -0.082554713 0.33028501 1.1249293e-38
3.0287387 -0.087061994 0.33221281 9.7925609e-39
3.0755265 -0.092683226 0.32011735 9.5170587e-39
3.1403656 -0.063500233 0.33444652 8.5018277e-39
3.1663642 -0.077606633 0.33504188 8.764347e-39
3.2450964 -0.097260296 0.31556326 8.956678e-39
3.2812634 -0.086816773 0.31484616 8.7823803e-39
3.3238411 -0.069732487 0.32408455 9.3305038e-39
3.3927145 -0.08575473 0.32766116 1.1915228e-38
3.4315772 -0.086524606 0.33637214 1.4488051e-38
3.465976 -0.055301875 0.33527684 1.8257258e-38
3.5407038 -0.087512769 0.3238304 2.1387221e-38
3.6892705 -0.05098255 0.33179319 9.1446762e-39
2.6815026 -0.030129097 0.32432508 1.4178617e-38
2.7727621 -0.017134318 0.31912902 1.2980797e-38
2.8248553 -0.021557635 0.32067305 1.4272979e-38
2.8780961 -0.01414619 0.32838005 1.4094009e-38
2.9156611 -0.034749761 0.32460487 1.2346259e-38
2.9911637 -0.043881208 0.3416391 8.678645e-39
3.0300522 -0.036324266 0.31844625 8.7773314e-39
3.0587158 -0.02079387 0.30176219 8.5954653e-39
3.161797 -0.042223934 0.31700605 8.0293113e-39
3.2305081 -0.015366058 0.32485604 7.749479e-39
3.2961922 -0.027853504 0.32856989 8.5925758e-39
3.3199444 -0.010015726 0.32665005 9.2386669e-39
3.3783841 -0.02832849 0.32700801 1.5406042e-38
3.6363101 -0.0075371414 0.3207562 1.0704791e-38
2.7454281 0.011869669 0.31786722 1.270457e-38
2.7773533 0.025847033 0.31734562 1.4825788e-38
2.8168702 0.024636999 0.3267583 1.4087867e-38
2.8724082 0.022945406 0.3249267 1.4455208e-38
2.9098139 0.02921021 0.33589303 1.4549568e-38
2.9523425 0.0040394068 0.33677778 1.3633032e-38
3.0564206 0.046372727 0.34789485 1.0529769e-38
3.1209822 0.038728356 0.32768515 8.1251068e-39
3.2238419 0.025706142 0.33158365 8.9599192e-39
3.2851162 0.012140799 0.34185612 9.3265423e-39
3.3255703 0.020788874 0.32410237 1.1541761e-38
3.3695111 0.0086722355 0.31656662 1.16354e-38
3.5812943 0.024694525 0.31881696 1.291279e-38
2.6882372 0.079615697 0.30533642 1.381019e-38
2.7416098 0.074188441 0.31232783 1.3441415e-38
2.7787371 0.077222623 0.3191705 1.3902394e-38
2.8249197 0.078023903 0.33156139 1.4641403e-38
2.8708453 0.075251423 0.31513515 1.3902753e-38
2.9222915 0.080734797 0.31946388 1.1336072e-38
2.9672227 0.070836157 0.32142541 1.2076166e-38
3.0312374 0.062581852 0.31716534 1.0971988e-38
3.0537701 0.067178518 0.31891459 7.3879047e-39
3.1154203 0.052101452 0.33742771 9.695678e-39
3.1836817 0.051547408 0.31345338 1.071416e-38
3.2997422 0.072825901 0.32772702 1.0897834e-38
3.3362026 0.074348181 0.3195062 8.9660485e-39
3.3671744 0.072614476 0.30695575 1.3477868e-38
3.4206951 0.072100416 0.31325698 9.981278e-39
3.5348163 0.09141998 0.33752328 1.493749e-38
2.6504452 0.13144201 0.34576684 1.4455565e-38
2.7380109 0.1289781 0.32061067 1.390167e-38
2.773612 0.12199245 0.32535371 1.4180422e-38
2.8252592 0.11804059 0.32352585 1.3350299e-38
2.8741369 0.10095094 0.34044078 1.3440693e-38
3.2430952 0.11759992 0.33054167 1.3293471e-38
3.2659817 0.12290201 0.33979535 1.2280045e-38
3.3784602 0.116114 0.31861043 9.6117766e-39
3.4289253 0.11946391 0.31451786 1.0257863e-38
3.484705 0.11492184 0.30588919 1.0075273e-38
3.5689554 0.1199096 0.31257775 1.3553472e-38
2.6379447 0.17695276 0.33919838 1.4455922e-38
2.7300186 0.17836912 0.32742658 1.3532527e-38
2.7743318 0.17672719 0.32463795 1.3810919e-38
2.8374686 0.17532837 0.31819451 1.6574627e-38
3.1973839 0.18652283 0.32084978 1.0432524e-38
3.2702935 0.16207631 0.32731739 9.885481e-39
3.319191 0.17018864 0.3170175 1.1727585e-38
3.3709593 0.15836851 0.30579472 1.1636472e-38
3.5736604 0.18630141 0.30614394 1.0879439e-38
3.6265075 0.1651585 0.32895163 1.2264537e-38
2.6416783 0.24311748 0.32981682 1.4363364e-38
2.6761456 0.23159826 0.33503687 1.3625442e-38
2.7213871 0.22509341 0.32717606 1.3902031e-38
2.7677395 0.23200189 0.32759121 1.4087862e-38
2.8158376 0.21128042 0.30333135 1.4363724e-38
2.8664494 0.23656026 0.33207878 1.4825069e-38
2.9306746 0.21691391 0.30805957 1.4917265e-38
2.9961452 0.2163173 0.33606458 1.4916909e-38
3.2893536 0.22877476 0.32949674 1.4208937e-38
3.3349483 0.22697356 0.31820026 1.4301488e-38
3.4446673 0.20495373 0.31822407 1.0235873e-38
3.4564233 0.23075737 0.34751225 5.9023196e-39
1.422619 0.29319432 0.32668778 1.5393045e-38
1.4619516 0.25160405 0.34006363 1.0966932e-38
2.6317158 0.2795378 0.3362757 1.4639951e-38
2.6813316 0.28871295 0.32445288 1.2702409e-38
2.7245448 0.27149755 0.32719389 1.4086784e-38
2.7735953 0.27568644 0.34137049 1.4180056e-38
2.8213339 0.27345172 0.32676971 1.4363009e-38
2.9033439 0.26847926 0.30716398 1.980977e-38
3.2326422 0.27698317 0.34132138 1.4208214e-38
3.2847366 0.28929466 0.30235153 1.4300769e-38
1.4118283 0.34039235 0.30241278 1.5392683e-38
2.6283844 0.3360799 0.33302927 1.4362641e-38
2.6821887 0.33356538 0.32931164 1.334814e-38
2.7290759 0.32449546 0.32464644 1.3809836e-38
2.7672172 0.31585872 0.3318404 1.454848e-38
2.826263 0.32157281 0.30892777 1.3624001e-38
2.8893471 0.32501578 0.31781641 1.9626094e-38
2.9118776 0.31121475 0.34049657 1.9441705e-38
3.0766006 0.34953028 0.31833899 1.3256302e-38
3.1224952 0.33634791 0.30455869 1.1785876e-38
3.1839299 0.33834171 0.32494426 1.2431968e-38
3.2363696 0.32684833 0.31572711 1.2921802e-38
1.3930643 0.37072316 0.31488502 8.3865443e-39
1.4003037 0.37338489 0.3471849 1.0414845e-38
1.4582819 0.39999557 0.31004602 8.30118e-40
2.6375122 0.37865216 0.33059883 1.2059207e-38
2.6741445 0.37933877 0.32151517 1.3256304e-38
2.7262473 0.37229282 0.33162755 1.3994586e-38
2.7615261 0.37238526 0.31627086 1.4547401e-38
2.8008523 0.3545523 0.30821335 1.3808394e-38
2.8590233 0.36870646 0.33140677 1.999524e-38
2.9369588 0.37785721 0.30534464 1.3162664e-38
2.988452 0.37141421 0.32895118 1.3254858e-38
3.0291867 0.36926737 0.34750783 1.3347051e-38
3.1148863 0.35075164 0.33716333 1.2888238e-38
3.2269537 0.37344277 0.32924742 1.0254621e-38
1.4616652 0.42263451 0.32397717 7.3792237e-40
2.6289287 0.43304592 0.32314804 1.288897e-38
2.6830127 0.42250317 0.33116934 1.28886e-38
2.7189846 0.4091756 0.32719156 1.4548478e-38
2.7724524 0.40002543 0.33189917 1.4084978e-38
2.8241208 0.42480358 0.33013427 1.7687101e-38
2.8611832 0.43871689 0.33308703 1.380875e-38
2.9276323 0.43004397 0.32999194 1.3070826e-38
2.9759817 0.412451 0.3452245 1.3162661e-38
3.2231998 0.43435407 0.32572719 8.9649667e-39
1.4835532 0.48047137 0.33288878 6.4644841e-40
2.5806723 0.47982931 0.33150217 1.1230171e-38
2.6215546 0.48473161 0.31655225 1.3258112e-38
2.6713421 0.47489673 0.32539994 1.3348857e-38
2.7317371 0.46518293 0.31964588 1.4824705e-38
2.7736211 0.47468299 0.33275914 5.6188677e-39
2.8226986 0.4798809 0.32822585 1.1150964e-38
2.8593323 0.48659188 0.31749713 1.4769223e-39
2.9159019 0.47427726 0.32161352 1.3166991e-38
2.9701927 0.48777834 0.31840235 1.0686379e-38
3.0102794 0.48195487 0.3132391 1.0885574e-38
3.0722466 0.4722853 0.32509357 1.0153415e-38
3.1291397 0.46367472 0.3450914 9.42054e-39
3.1769667 0.45664972 0.33467811 9.0550001e-39
1.4828455 0.51940906 0.30908132 1.1985376e-39
2.5879886 0.53512508 0.31766912 1.3257753e-38
2.6169198 0.53597432 0.31944576 1.3626892e-38
2.6638594 0.51473981 0.33174729 1.3994591e-38
2.7227998 0.50612468 0.31621933 1.5285317e-38
2.7703834 0.50294578 0.31721282 1.0327707e-38
2.8309031 0.53412241 0.32211292 5.6203111e-39
2.8802614 0.53038758 0.31316268 1.3349581e-38
2.9288671 0.51960057 0.31480676 1.5288212e-38
2.958092 0.51136166 0.30404848 2.1369873e-38
1.5124815 0.57176405 0.32455367 7.8330118e-39
2.5836897 0.57303458 0.32343528 1.3258474e-38
2.609647 0.58265746 0.32033491 1.3903121e-38
2.7088268 0.58153623 0.31687602 1.6303087e-38
2.7710931 0.57103324 0.31691483 1.8523729e-38
2.8256762 0.56620914 0.32852295 1.1324884e-38
2.8817718 0.57939178 0.32149252 1.2614904e-38
2.9144063 0.55057269 0.31929517 2.1463145e-38
1.534322 0.61721623 0.34330291 7.6507883e-39
2.5481691 0.60287619 0.32520461 1.1597147e-38
2.5809202 0.6282599 0.3225483 1.371873e-38
2.6169128 0.62549949 0.32305402 1.4457733e-38
2.6711271 0.62531 0.32725263 1.5748109e-38
2.7247176 0.63799697 0.32184201 1.417898e-38
2.7745986 0.61139059 0.3260982 1.3626163e-38
2.8198893 0.6249156 0.32845628 1.2889324e-38
2.8786662 0.63431633 0.32812518 1.1239189e-38
2.9060612 0.62806404 0.31896144 1.3716198e-38
1.3380162 0.68311197 0.33296683 6.9161184e-39
1.378073 0.68643272 0.32887167 1.2907028e-38
1.4028444 0.69571394 0.34317571 1.3552397e-38
1.591943 0.67978454 0.31970006 5.8997972e-39
1.6054109 0.68562585 0.32057232 3.2264869e-39
2.5386403 0.67595899 0.32399586 1.252091e-38
2.5733733 0.67592055 0.32347286 1.3903483e-38
2.6255305 0.67164636 0.32226491 1.4831211e-38
2.6740479 0.66188788 0.34431171 1.5761472e-38
2.7372866 0.67558682 0.33459359 1.417898e-38
2.7728481 0.67093825 0.31240293 4.7030491e-39
2.8400776 0.66006237 0.32697028 5.0660569e-39
2.9107876 0.67312515 0.32250565 1.7589854e-38
1.277526 0.72215509 0.3345823 9.2484297e-40
1.4189708 0.70061177 0.32800066 1.4935328e-38
2.5338926 0.7242412 0.32633713 1.2427634e-38
2.5702527 0.73134607 0.32290241 1.4087151e-38
2.6371162 0.72659481 0.34427065 1.56552e-38
2.6694853 0.73340499 0.30836737 1.4178977e-38
2.7282906 0.71604109 0.33664593 1.4086783e-38
2.8483653 0.72612405 0.31202585 1.344106e-38
2.8792911 0.70310032 0.32421893 1.3256666e-38
2.9319131 0.73271137 0.32319087 2.2475869e-38
2.9728837 0.72836459 0.31714284 5.064622e-39
1.2652133 0.78926516 0.33027679 7.4045312e-40
2.5305102 0.77569669 0.32179615 1.3257029e-38
2.5640645 0.77764022 0.32887787 1.3534342e-38
2.6349239 0.76636183 0.32083109 1.4178977e-38
2.671273 0.78674793 0.32473496 1.9807979e-38
2.7954679 0.75931323 0.30651337 1.3441424e-38
2.866797 0.79677051 0.3166303 2.1741929e-38
2.9217124 0.77903348 0.32448143 1.1700174e-38
2.9754338 0.77623534 0.33793849 1.1999851e-39
1.0818219 0.84107691 0.30306563 1.1153855e-38
1.1327534 0.80617779 0.34590796 1.4104838e-38
1.181957 0.81517273 0.31075943 1.3273637e-38
1.2239294 0.83184922 0.33070752 1.2904853e-38
1.2675524 0.82771581 0.32187635 8.3336761e-40
2.4807615 0.82872325 0.32693654 1.2148879e-38
2.5328739 0.82926565 0.32449347 1.3718367e-38
2.5666635 0.82703358 0.3305909 1.2802907e-38
2.6371493 0.83000648 0.32605749 1.583995e-38
2.6690187 0.82640517 0.33263987 1.7778225e-38
2.7452278 0.82321197 0.33097726 1.4457381e-38
2.776406 0.84042174 0.31549078 2.2206518e-38
2.8293808 0.81418741 0.33578658 2.2020321e-38
2.8964682 0.8407768 0.31649002 1.0163127e-39
2.9225669 0.83455616 0.34456125 1.1081482e-39
1.0859766 0.88419861 0.30791339 1.3459469e-38
1.27495 0.86203176 0.31965289 1.3919007e-38
1.3214853 0.88498634 0.32362309 1.4471822e-38
1.5300699 0.89565897 0.32536545 2.8591477e-39
2.4878523 0.88508767 0.3244473 1.1688986e-38
2.524425 0.87519127 0.32422519 1.3443224e-38
2.5702515 0.87332964 0.32603422 1.2802191e-38
2.6215255 0.87617844 0.32739878 1.5748116e-38
2.6611567 0.86493427 0.34908301 1.6944141e-38
2.7364206 0.86009812 0.33764794 1.4918358e-38
2.7757964 0.88099241 0.32907191 2.1932094e-38
2.8788004 0.8815915 0.32759264 1.4780111e-39
1.0966598 0.92466736 0.31801677 1.2998488e-38
1.3704379 0.9055894 0.32346377 1.4471822e-38
1.4297781 0.92034072 0.32045335 1.3089609e-38
1.4672834 0.9106577 0.32407543 3.4119614e-39
2.4815342 0.93152285 0.31951129 1.2427991e-38
2.5285199 0.91482019 0.3199825 1.3165192e-38
2.5765913 0.92394745 0.32641348 1.1976758e-38
2.6307192 0.92920792 0.32030752 8.3901582e-39
2.6614349 0.9347409 0.32446423 8.307703e-39
2.7348287 0.92451453 0.32654786 1.6586906e-38
2.7659986 0.92424631 0.32171941 1.5111769e-38
2.8335316 0.90714705 0.32955122 4.7981384e-39
2.8661065 0.90686697 0.34560955 3.3230041e-39
1.1020272 0.95128316 0.32839125 1.1707023e-38
1.3429511 0.99941069 0.31946009 1.4654042e-38
1.3855207 0.97399938 0.30460897 1.0690359e-38
1.4268087 0.98025423 0.3224687 1.4740441e-39
1.4521582 0.98339707 0.31127948 8.2975646e-40
1.6185064 0.98415291 0.31775337 1.21644e-38
1.665136 0.982198 0.31141865 1.4837352e-38
1.7758533 0.97654575 0.32378247 1.5852223e-38
1.8212966 0.99293244 0.33909529 1.6867453e-38
2.4484644 0.99349666 0.32468066 1.4641404e-38
2.4824722 0.97682548 0.31469131 1.3533252e-38
2.5258322 0.96789944 0.32419336 1.2805793e-38
2.5727415 0.95597935 0.31895006 1.4575556e-38
2.6227891 0.9709788 0.32681209 8.3008451e-39
2.6695225 0.97523779 0.32877073 7.0079441e-39
2.7228684 0.9731676 0.33308399 9.1251967e-39
2.7617159 0.99411941 0.32894132 3.5146177e-39
1.309201 1.036723 0.32196212 1.3456221e-38
1.4996207 1.0006242 0.31668377 9.2159336e-40
1.5432308 1.0221908 0.32852203 7.3756224e-40
1.5883563 1.0185057 0.32549632 2.6722271e-39
1.7094743 1.0016991 0.32308272 1.4560765e-38
1.7771378 1.0304227 0.34064004 1.3362223e-38
2.3889275 1.0304053 0.33385101 1.4733961e-38
2.4329834 1.0280174 0.31578392 1.5102378e-38
2.4777787 1.0057812 0.32463479 1.307408e-38
2.5193777 1.0268747 0.32521045 1.0222156e-38
2.5732975 1.0085642 0.32957512 9.5062406e-39
2.6419408 1.0259539 0.31960914 1.3731733e-38
2.677875 1.0219991 0.31608066 8.5738236e-39
2.7233949 1.0257404 0.33064914 4.243157e-39
2.761915 1.0250547 0.33454239 1.2003439e-39
2.813309 1.0297599 0.32708865 3.7004509e-39
1.235409 1.0947208 0.33547115 2.489282e-39
1.2857324 1.0817987 0.32968599 7.280924e-39
2.3811948 1.0711765 0.32997948 1.4918351e-38
2.417248 1.0911247 0.3137652 1.4734318e-38
2.5291207 1.0613085 0.32586363 7.2827261e-39
2.5759411 1.0750533 0.32994634 9.5890574e-39
2.6096587 1.0727878 0.30812758 1.9078716e-38
2.6931765 1.0734063 0.32482073 7.3705875e-39
2.7300034 1.0739123 0.32643756 2.2173811e-39
2.7651708 1.0793353 0.32938531 3.6953978e-39
2.8264852 1.0680604 0.3314715 1.8486083e-39
1.2140924 1.1331582 0.33705783 1.2350958e-38
2.3749223 1.1253241 0.33677554 1.5390161e-38
2.4363511 1.1380963 0.31973681 1.0789407e-38
2.5023351 1.1453846 0.31676486 8.2064831e-39
2.5741284 1.1298192 0.32613754 1.4287422e-38
2.6176305 1.1277932 0.32476181 6.1727688e-39
2.671159 1.1349773 0.31404701 8.2050467e-39
2.7270577 1.1227155 0.32515541 1.9386292e-39
2.7652173 1.1191939 0.32847708 2.0319108e-39
2.8200135 1.1198111 0.3324874 5.5440034e-39
2.864918 1.1164989 0.34910801 3.4224207e-39
1.2282069 1.1917856 0.32396179 1.6776351e-38
2.1624942 1.1545162 0.34576136 1.6038419e-38
2.2396026 1.1858755 0.33457613 1.6960378e-38
2.2922673 1.197713 0.33719063 1.4917985e-38
2.331861 1.1740042 0.31594357 1.5202155e-38
2.3850079 1.1753309 0.30145308 1.438252e-38
2.4232373 1.1719081 0.32352576 9.6837851e-39
2.4764607 1.1755631 0.32571045 1.3824647e-38
2.5303574 1.1640235 0.331523 1.0691439e-38
2.5724564 1.1819971 0.32316175 7.7397358e-39
2.6176667 1.1661388 0.3285768 7.3785329e-39
2.666317 1.1727223 0.32682312 1.2932598e-39
2.7243299 1.1800941 0.34273559 9.2375557e-40
2.7697544 1.1760945 0.32335705 1.2025047e-39
2.8399458 1.1791474 0.32732722 3.324816e-39
2.8784769 1.1796322 0.32409197 5.1723314e-39
1.1931546 1.2468715 0.32133949 1.6134957e-38
1.2163303 1.2306069 0.32072243 1.7791583e-38
2.2870114 1.2282679 0.32926682 1.4099059e-38
2.326118 1.2264652 0.33123022 1.3831147e-38
2.3802226 1.219618 0.32477182 1.3829702e-38
2.4193258 1.2166458 0.3317188 1.401337e-38
2.4731143 1.2177283 0.33746386 9.8645709e-39
2.5181456 1.2249821 0.32310835 5.900879e-39
2.5763979 1.2305312 0.333902 6.8239157e-39
2.6269259 1.2263136 0.33126098 7.7494776e-39
2.6818237 1.228386 0.32810119 2.1223016e-39
2.7202423 1.2244966 0.32910025 2.7676682e-39
2.7834449 1.210228 0.32435369 3.0478634e-39
2.8227813 1.2230548 0.30756685 3.052562e-39
2.8736062 1.2179823 0.32548019 1.8482412e-39
1.213603 1.2542092 0.34620351 1.6503012e-38
2.2838979 1.2776879 0.32286096 1.345947e-38
2.3181009 1.2752552 0.32246017 1.3185417e-38
2.3663554 1.2777195 0.32461283 1.3368724e-38
2.4110336 1.267454 0.32739213 1.2631153e-38
2.5318015 1.2682283 0.33030215 7.6551212e-39
2.5661922 1.2816467 0.33167052 3.7818201e-39
2.6364205 1.2820008 0.32420182 6.7328033e-39
2.6819537 1.2726077 0.31802839 1.569848e-39
2.7106867 1.2583714 0.32228333 1.292178e-39
2.7710326 1.2518964 0.33458114 1.1085084e-39
2.8065069 1.2634535 0.30908936 9.241171e-40
2.8647861 1.2681607 0.31742167 2.0344387e-39
2.2189434 1.337688 0.33738965 1.2446048e-38
2.2705951 1.3213686 0.32684448 1.3923701e-38
2.319448 1.3196195 0.32688028 1.3368725e-38
2.3781664 1.3269359 0.32723883 1.4197765e-38
2.4197755 1.3014399 0.32874206 9.1277219e-39
2.4764457 1.3070271 0.32786658 6.9150254e-39
2.5206108 1.33617 0.3270928 8.6671095e-39
2.580766 1.3280762 0.32636231 6.7353243e-39
2.6206439 1.3303764 0.32939088 6.825722e-39
2.664788 1.3176378 0.31832871 2.4006891e-39
2.7068412 1.3305593 0.30854097 7.6612546e-39
2.9303288 1.3365759 0.32369173 2.5905006e-39
2.2265561 1.3804315 0.32181248 1.3275805e-38
2.2785568 1.3803794 0.31990808 1.3554558e-38
2.3294282 1.3689822 0.31466818 1.143298e-38
2.3814483 1.3720229 0.31608036 1.3737506e-38
2.4381218 1.3746017 0.34650961 1.4201005e-38
2.4717643 1.3545643 0.33025631 1.4200286e-38
2.5290439 1.386685 0.33139318 1.6508072e-38
2.5856161 1.3697435 0.3261587 1.2174509e-38
2.6400928 1.3760432 0.30812052 1.1161799e-38
2.670073 1.3739209 0.31716791 9.4082815e-39
2.7151365 1.3763994 0.31022203 8.4017063e-39
2.7663729 1.3582128 0.34988248 3.6093413e-39
2.8582451 1.3727 0.33572385 3.4245843e-39
2.9143965 1.3710185 0.33864078 3.1476358e-39
2.2269495 1.4238294 0.32275501 1.2262379e-38
2.272409 1.4182884 0.32222152 1.4016613e-38
2.328697 1.4314715 0.31781819 1.4015172e-38
2.3684916 1.4221025 0.32441527 1.364711e-38
2.4856014 1.4479017 0.31004548 1.6969416e-38
2.5325081 1.4330753 0.31670842 1.530772e-38
2.5929666 1.4111458 0.31019211 1.531276e-38
2.7228756 1.4209802 0.34005123 1.7542435e-39
2.7728744 1.4158254 0.3187378 1.0338171e-38
2.2371967 1.4721353 0.32526019 1.4015532e-38
2.2762678 1.4710045 0.32003704 1.3737869e-38
2.3310571 1.4920032 0.32115299 1.392226e-38
2.3762989 1.4728677 0.32311082 1.5030055e-38
2.4277239 1.4656422 0.32198077 1.2173793e-38
2.47966 1.4720929 0.3477518 1.4661263e-38
2.527391 1.4630445 0.3233842 1.4847458e-38
2.5622811 1.4974241 0.32264766 1.5497156e-38
2.7323041 1.4848838 0.3138206 3.5106436e-39
2.762476 1.4721102 0.32902551 2.3128151e-39
2.8451009 1.4878472 0.33655471 7.666658e-39
2.1861365 1.5302948 0.32997251 1.1984343e-38
2.230685 1.5281302 0.32719564 1.2538962e-38
2.2544434 1.5262293 0.31621841 1.364783e-38
2.3177142 1.5337007 0.31833714 1.6968693e-38
2.3634508 1.5199325 0.32823005 1.6045289e-38
2.4546835 1.5064009 0.32583904 7.9363982e-39
2.7177625 1.5206745 0.33840895 3.6050043e-39
2.8613453 1.531916 0.31787348 7.6655804e-39
1.9895775 1.5661576 0.32173359 1.6048885e-38
2.0227175 1.5759099 0.33823171 1.6048523e-38
2.0837557 1.5644016 0.30662012 1.5126926e-38
2.1060622 1.5707796 0.33101988 1.484962e-38
2.1989338 1.5840527 0.34122062 1.2813745e-38
2.2182813 1.5580776 0.32195079 1.4754538e-38
2.2777319 1.5823808 0.31740844 1.5954527e-38
2.3153653 1.5623124 0.31832254 1.3740398e-38
2.3763041 1.5517094 0.33569467 1.4753459e-38
2.5113833 1.5583282 0.3189311 6.2768754e-39
2.7731676 1.5746436 0.32476842 3.6035609e-39
2.848115 1.5743494 0.31632507 7.2967951e-39
1.944576 1.6333671 0.34605557 1.6233276e-38
1.9768553 1.6351738 0.31942913 1.6140722e-38
2.1349115 1.6277488 0.30310175 1.189467e-38
2.1755865 1.6351465 0.32149974 1.4477231e-38
2.2198713 1.6225606 0.3216818 1.327725e-38
2.2694652 1.6298591 0.32111683 1.6322228e-38
2.3007026 1.6081767 0.32592645 1.58627e-38
2.6112375 1.6475149 0.31629068 3.6975614e-39
2.6964769 1.6163061 0.30434781 9.9607336e-39
2.7089105 1.626421 0.33427733 1.0238037e-38
2.7707109 1.6492405 0.30177599 8.3941267e-39
2.8311818 1.6232949 0.33396539 4.8964661e-39
1.961206 1.6880473 0.3136211 1.5957768e-38
2.1427178 1.6841416 0.31798559 1.3368721e-38
2.1767685 1.6697236 0.31635237 1.3921895e-38
2.2055266 1.6826338 0.34020478 1.3368366e-38
2.2754984 1.6687484 0.32001635 1.3833673e-38
2.3351984 1.6734543 0.31555393 1.4387931e-38
2.3800552 1.6655695 0.32861075 5.2601942e-39
2.4735847 1.6875715 0.32918251 2.4039317e-39
2.5225787 1.6911314 0.31595314 1.6656464e-39
2.6477935 1.685854 0.32258666 2.960718e-39
2.650501 1.6918068 0.30742943 2.311383e-39
2.7579117 1.6875944 0.33473682 4.8957473e-39
2.8191478 1.6698322 0.32619333 6.1864805e-39
2.8658826 1.6600972 0.32226074 3.2322589e-39
2.135016 1.7322011 0.31479833 1.3647469e-38
2.1754577 1.7220771 0.32171947 1.4015532e-38
2.2230697 1.7332621 0.33598888 1.3276171e-38
2.2720218 1.7445884 0.30229819 1.4292482e-38
2.3546183 1.7199094 0.3117004 1.5769794e-38
2.5292733 1.7270734 0.34892547 2.8649099e-39
2.5565422 1.7358081 0.34799522 2.6812473e-39
2.610553 1.7373067 0.32538432 1.5723732e-39
2.6625266 1.7314607 0.33702555 2.9617956e-39
2.7378738 1.7030348 0.33129722 4.7135182e-39
2.8413773 1.7024579 0.31684172 3.3266153e-39
2.8895066 1.7020231 0.31802705 2.6808843e-39
2.0434608 1.7954668 0.30957663 1.5124045e-38
2.0838637 1.7846111 0.31801978 1.5031489e-38
2.1330314 1.7731096 0.32971096 1.4107726e-38
2.1806684 1.781692 0.32900172 1.4291399e-38
2.2287321 1.7802445 0.32808143 1.3738228e-38
2.2821221 1.7905805 0.34225154 1.4845657e-38
2.6693711 1.7582645 0.34039783 2.6852102e-39
2.0497484 1.8035892 0.33934161 1.5124045e-38
2.0558748 1.802953 0.32750747 1.5123685e-38
2.1227679 1.8191086 0.33736044 1.3645668e-38
2.1742625 1.8385521 0.32427713 1.355203e-38
2.2222707 1.8262421 0.32286075 1.4199568e-38
2.0808854 1.8697906 0.32010996 1.3739307e-38
2.1246419 1.8669288 0.3135013 1.355167e-38
2.1570051 1.8880178 0.33960587 1.355167e-38
2.2272255 1.8849151 0.33231997 1.4937133e-38
2.2723544 1.8509275 0.30097383 2.2137797e-39
2.0800068 1.9097379 0.31836644 1.3646029e-38
2.115479 1.9389464 0.32280931 1.4659823e-38
2.18453 1.9393567 0.31151927 1.4291043e-38
2.2177191 1.9077578 0.31586123 1.3276171e-38
2.0702252 1.9802271 0.31357697 1.3739307e-38
2.119884 1.9810407 0.31182978 1.4290318e-38
2.1903903 1.9918545 0.32921833 1.0970916e-38
2.0395224 2.0136971 0.31438699 1.3739307e-38
2.1356344 2.0304706 0.34504241 1.5213358e-38
2.1942205 2.0315249 0.33888441 1.4474708e-38
2.0423408 2.061331 0.32507557 1.3462e-38
2.1360102 2.0579696 0.31789812 1.4660187e-38
2.1593428 2.0888474 0.32232001 1.2545092e-38
2.2052457 2.0760407 0.33467799 1.2998133e-38
2.1710217 2.1283112 0.31979668 1.2455053e-38
2.2146072 2.1269829 0.33623827 1.1533111e-38
2.224709 2.1634815 0.3410008 8.7762524e-39
2.2341509 2.2294674 0.31096566 8.4089104e-39
2.2745948 2.284369 0.34593546 9.8779084e-39
2.2817483 2.3115151 0.34355932 8.5018291e-39
2.3138041 2.3533864 0.33164114 8.5933059e-39
2.3708797 2.4273403 0.32243109 8.2263212e-39
2.391798 2.4657934 0.31494081 9.5102049e-39
2.4252 2.5320709 0.32380894 9.236146e-39
2.4767671 2.5710676 0.34347534 9.8779084e-39
2.4860351 2.647151 0.31636471 9.971183e-39
2.4995103 2.6831369 0.31273544 7.9497371e-39
2.5107677 2.6665876 0.33869132 8.2263226e-39
2.5215185 2.7240479 0.32483524 1.0155574e-38
2.5630639 2.7137437 0.34002644 9.6024033e-39
2.5440364 2.7833195 0.33884394 7.9497371e-39
2.1384935 2.8312135 0.32773626 1.0700821e-38
2.1711571 2.8293443 0.31929925 7.6598141e-39
2.556468 2.8117528 0.3300572 8.5911381e-39
2.6209872 2.8454063 0.30711687 7.2128924e-39
2.0813327 2.8666615 0.33111426 1.4199922e-38
2.1335177 2.8734472 0.33382395 1.3371613e-38
2.1628041 2.8716054 0.32788506 9.5962712e-39
2.2195096 2.8622684 0.32536519 1.042568e-38
2.2679224 2.8962698 0.31255561 9.048152e-39
2.5823894 2.8896353 0.33353442 7.027778e-39
2.0972707 2.9490528 0.33284545 1.5487429e-38
2.2211192 2.9111626 0.31724668 8.9552347e-39
2.3253655 2.9199634 0.34154078 8.3159959e-39
2.6166992 2.937592 0.3175658 7.1188947e-39
2.2564313 2.9550197 0.30123502 7.9450456e-39
2.305696 2.9985437 0.34070641 8.4989424e-39
2.6243043 2.9817648 0.31712222 7.0270592e-39
2.1904488 3.0134015 0.33415544 1.6318994e-38
2.3256147 3.0330801 0.32432169 8.3152715e-39
2.3702183 3.0088284 0.31633985 8.130883e-39
2.6393154 3.0373251 0.30709386 7.0259802e-39
2.6976359 3.049823 0.30577183 7.1188947e-39
2.153053 3.0879097 0.33699226 2.7637109e-39
2.2273273 3.0783746 0.30235052 1.6318632e-38
2.354214 3.0819137 0.3085807 8.2234318e-39
2.4003422 3.05726 0.30070919 7.2089267e-39
2.6546729 3.0817266 0.32515699 7.0266976e-39
2.4631348 3.1225407 0.34443969 8.1316047e-39
2.6405087 3.1083126 0.32517803 7.3025629e-39
2.6637487 3.177969 0.32108569 7.1185317e-39
2.8673885 3.1825173 0.3429901 9.971183e-39
2.2902668 3.2290776 0.34375191 3.0403034e-39
2.6765995 3.2328415 0.34802914 7.577712e-39
2.8670053 3.2186241 0.34803969 1.0155577e-38
2.2330551 3.276783 0.32467598 2.1194121e-39
2.6916685 3.2555449 0.32823044 7.3940396e-39
2.7067764 3.2783093 0.30819529 7.1185317e-39
2.2564912 3.3194585 0.34778541 2.1194121e-39
2.7148228 3.3274221 0.33492184 7.0263361e-39
2.2762699 3.3999171 0.30525088 1.9350208e-39
2.7305295 3.3512969 0.31459808 7.0263361e-39
2.2228696 3.4368429 0.32523021 1.8421021e-39
2.2744093 3.4499414 0.31480926 1.842821e-39
2.5715005 3.4014533 0.30778831 7.0263305e-39
2.2065349 3.4668045 0.31023908 1.7502666e-39
2.3190415 3.4793031 0.34157139 2.1186932e-39
2.4148364 3.493804 0.32443607 2.3038033e-39
2.7897491 3.4790602 0.3478449 7.1185317e-39
2.4252625 3.5129423 0.32578155 2.1197722e-39
2.2666879 3.5876701 0.33896774 1.7502666e-39
1.8919032 3.9244637 0.30698895 9.6819747e-39
1.9263997 3.9274056 0.32558697 7.842039e-39
1.8963587 3.9757848 0.32682824 1.3738233e-38
1.9705282 3.958998 0.32352799 5.3617701e-39
2.6420226 3.9556208 0.33450997 2.1194121e-39
1.9865707 4.0008016 0.33763897 5.9127803e-39
2.276475 4.0296192 0.34730372 1.1985348e-39
2.6395214 4.044138 0.3432557 1.934302e-39
2.6671174 4.0249367 0.32178277 1.935381e-39
2.0640359 4.0886006 0.32578522 5.3599694e-39
2.6753347 4.0947862 0.31357771 1.7506296e-39
2.1190925 4.1712513 0.32778472 1.4769378e-39
1.7246157 4.247581 0.34377599 1.4847458e-38
1.7092686 4.2806196 0.32353723 1.5675778e-38
1.7844689 4.2948174 0.33514577 1.687468e-38
2.1893973 4.2762241 0.31759387 9.2303109e-40
2.2156589 4.2933125 0.32887125 9.2230802e-40
2.2702191 4.2851429 0.33431473 1.1985348e-39
1.7958099 4.3251071 0.30874169 1.6781763e-38
1.6816748 4.3914871 0.31911653 1.6137476e-38
1.7020819 4.3719387 0.31950837 1.6230029e-38
1.6911649 4.494298 0.32333535 1.6137835e-38
1.8988299 4.5084648 0.34959406 1.7058352e-38
1.6876816 4.5643158 0.31118417 1.4846376e-38
1.7017899 4.6020675 0.34220493 1.567614e-38
1.7221224 4.7454524 0.30412525 1.217055e-38
1.7478422 4.902967 0.34085864 9.4983135e-39
2.8753085 -1.767629 0.37803978 3.2401734e-39
3.2102132 -1.7753756 0.38114527 2.5785798e-39
2.8734412 -1.7140754 0.38010556 2.778475e-39
3.1883621 -1.7232366 0.36080217 2.946642e-39
3.2134309 -1.7047693 0.39199895 4.9749515e-39
2.8409994 -1.6629267 0.3588773 4.8964577e-39
2.8572602 -1.6795375 0.37861264 4.3436399e-39
3.1587903 -1.6524022 0.37672439 4.6021977e-39
2.8175926 -1.6217222 0.38325113 9.687741e-39
3.2678254 -1.6002588 0.3674297 1.4012592e-39
3.3212469 -1.6272116 0.39351693 1.4012592e-39
3.3702641 -1.6318519 0.36832219 1.4012592e-39
3.4293988 -1.6369504 0.37502992 1.4012592e-39
3.4582853 -1.6005201 0.35847405 1.3087049e-39
2.8228233 -1.566442 0.36933255 9.0466974e-39
2.8820767 -1.5602051 0.37841937 6.0110631e-39
2.9355836 -1.5737443 0.37820774 1.4045046e-39
2.9782493 -1.5768231 0.37669122 1.2197504e-39
3.0196011 -1.5660404 0.37034521 1.1268345e-39
3.0813951 -1.5773222 0.37691748 6.4457515e-39
3.1093354 -1.5709358 0.3877652 1.4945367e-39
3.23333 -1.5873547 0.35389832 1.217947e-39
2.7941561 -1.5493612 0.36416665 2.2317514e-39
2.8211732 -1.5260241 0.37408316 1.2186686e-39
2.8787837 -1.5442331 0.37593836 4.8121542e-39
2.9916651 -1.5151193 0.39535499 1.1279149e-39
3.0905328 -1.5116057 0.37857255 1.1282765e-39
3.1853161 -1.5408924 0.37706214 1.1282765e-39
3.2242146 -1.5131497 0.36220634 1.0360822e-39
3.4226708 -1.5269432 0.37452722 2.2256151e-39
3.5226488 -1.5072019 0.39035329 3.4033014e-39
2.9713392 -1.4865829 0.35564536 7.7343253e-39
3.0335472 -1.4995122 0.38817653 1.2197518e-39
3.1148164 -1.4662318 0.37777036 1.3090636e-39
3.2305098 -1.4629452 0.38667661 1.0357291e-39
3.2778153 -1.4668665 0.36398476 1.2190358e-39
3.4485364 -1.496037 0.35089949 5.7038635e-39
3.5140755 -1.4986706 0.35785183 4.047589e-39
3.5722969 -1.4944489 0.3761611 2.8519296e-39
3.6465168 -1.4745986 0.36209869 2.4842289e-39
2.9391012 -1.4490939 0.37704659 7.4534112e-39
3.1377933 -1.4440161 0.36579826 1.0331998e-39
3.1826649 -1.4359865 0.38158303 2.4982489e-39
3.2636766 -1.4236746 0.38216633 1.2183169e-39
3.3131318 -1.4203167 0.36395967 1.1261213e-39
3.3719137 -1.4173329 0.36809093 2.0426728e-39
3.6121573 -1.427986 0.38729799 1.9321369e-39
2.8764257 -1.3769513 0.39139169 8.0984191e-39
2.9037576 -1.3515936 0.38171238 7.4548546e-39
3.171169 -1.3701563 0.3656528 4.6003956e-39
3.2830241 -1.370129 0.39881262 9.4064401e-40
3.322952 -1.3771613 0.36757183 1.76213e-39
3.364996 -1.3560426 0.35694256 3.9568311e-39
3.5983958 -1.3908241 0.39246005 1.8403015e-39
3.6180215 -1.3619561 0.36359915 2.0243326e-39
2.9266715 -1.3287971 0.36562842 7.2708249e-39
3.0568364 -1.3067257 0.35023975 4.058009e-39
3.1421854 -1.3159759 0.36980841 6.5339731e-39
3.1688209 -1.3344846 0.3727175 4.0490253e-39
3.2343774 -1.3215998 0.36401108 3.2192702e-39
3.2873468 -1.3189328 0.37712765 3.7817823e-39
3.3267102 -1.3248565 0.36278749 3.6806029e-39
3.547544 -1.3295414 0.39935297 1.748466e-39
3.583859 -1.3214426 0.3686851 1.6569934e-39
3.7845807 -1.3215621 0.36041865 2.0257745e-39
2.9597068 -1.2766914 0.37447166 5.4348366e-39
3.005338 -1.2731657 0.36963797 3.7843144e-39
3.0666015 -1.2760777 0.37368128 6.1677227e-39
3.1214406 -1.2742127 0.36712646 5.2555026e-39
3.1742587 -1.2843928 0.38251352 5.3455361e-39
3.2288334 -1.2718763 0.37826458 6.8239087e-39
3.2692745 -1.2679751 0.37044904 4.784068e-39
3.3356922 -1.2723085 0.3573432 3.6802442e-39
3.4543655 -1.2513865 0.35230088 2.5760616e-39
3.5334811 -1.2730132 0.36863941 1.5651565e-39
3.7420907 -1.27721 0.35810742 2.0257745e-39
3.1248312 -1.2334281 0.35349363 2.3092208e-39
3.1765678 -1.2372795 0.39138088 8.0368839e-39
3.2305498 -1.2238585 0.37891388 5.7078264e-39
3.2665734 -1.2161257 0.37801549 7.0925615e-39
3.3202081 -1.2242913 0.36040604 2.9437651e-39
3.3715272 -1.2294799 0.35059419 1.6559102e-39
3.4673874 -1.2259125 0.37111467 2.9441253e-39
3.6683137 -1.2192521 0.35328391 2.0257717e-39
3.1294522 -1.1692791 0.38989198 1.0341052e-38
3.188195 -1.1727079 0.39060274 6.6406035e-39
3.2250273 -1.1665907 0.3770186 5.066787e-39
3.2724979 -1.1715789 0.37016934 4.9702655e-39
3.3426003 -1.1750277 0.3626368 3.4962186e-39
3.3788459 -1.1805147 0.36914247 2.1165268e-39
3.4130712 -1.1831217 0.35663915 6.8091292e-39
3.4731998 -1.1632354 0.37638509 3.0363237e-39
3.6296804 -1.1785116 0.35119995 2.0257717e-39
3.1222944 -1.125769 0.36491713 7.6601672e-39
3.1752052 -1.1311975 0.38334548 6.914668e-39
3.2184632 -1.1278974 0.37534392 3.5884129e-39
3.2627859 -1.1141492 0.37476179 4.4214176e-39
3.3199956 -1.121174 0.36767149 1.9324957e-39
3.3810098 -1.112817 0.35587791 2.4863897e-39
3.4229922 -1.1288598 0.3652043 3.5905765e-39
3.5158222 -1.1285911 0.36218938 1.7491862e-39
3.5765071 -1.1150507 0.38327244 2.8519226e-39
3.6072614 -1.1457293 0.35037932 2.1172485e-39
3.0947666 -1.0834739 0.37792352 1.033636e-38
3.1803911 -1.0833945 0.36342001 7.3897082e-39
3.2189577 -1.0732033 0.38039693 6.9211589e-39
3.2630596 -1.0736594 0.3706266 2.4842289e-39
3.3293586 -1.0668068 0.37079448 5.531735e-39
3.3769138 -1.0801203 0.36811727 2.4849506e-39
3.4311669 -1.0676142 0.38564751 2.2083609e-39
3.4643896 -1.0961635 0.37786469 1.6569892e-39
3.514689 -1.073298 0.3526054 2.4845863e-39
3.5554276 -1.0734735 0.35507077 2.3923892e-39
3.6117311 -1.0784843 0.38087174 1.8399399e-39
3.084408 -1.0280204 0.37130904 9.1309631e-39
3.1208959 -1.0191314 0.37219071 1.0514621e-38
3.1746969 -1.0260053 0.37246808 8.0285868e-39
3.2259781 -1.0199524 0.36758518 4.1480789e-39
3.257103 -1.0297245 0.37364727 2.7600955e-39
3.3180976 -1.0206717 0.35650107 4.8834789e-39
3.3772221 -1.0061948 0.38582784 1.9324971e-39
3.432734 -1.0394518 0.37641782 1.8410217e-39
3.6288297 -1.0321611 0.37809256 1.4722392e-39
4.0816679 -1.0247415 0.36794576 2.859854e-39
3.0662909 -0.96008265 0.37631792 5.8994343e-39
3.1283574 -0.97746599 0.37587175 8.4859566e-39
3.1783073 -0.97597772 0.36404765 6.3647397e-39
3.234978 -0.96415401 0.37077689 4.7858757e-39
3.2776887 -0.97834337 0.37019682 7.7451546e-39
3.3208077 -0.95115525 0.35480964 2.4853093e-39
3.3579488 -0.98782909 0.37277254 2.1168869e-39
3.4149594 -0.99895352 0.35679132 1.9335761e-39
3.6617134 -0.97536528 0.39230353 2.9444854e-39
3.7277472 -0.97775418 0.37004244 1.5669572e-39
3.877311 -0.98584604 0.37177041 1.9368201e-39
3.9374132 -0.987005 0.37759992 2.0300961e-39
4.0774794 -0.98146206 0.38047156 1.9335761e-39
3.0385287 -0.91488069 0.39381143 5.9797343e-39
3.0616961 -0.92755109 0.38403696 4.2326991e-39
3.1275041 -0.91663486 0.37940061 9.3333849e-39
3.1941955 -0.90768099 0.38741741 3.7720839e-39
3.2184982 -0.92390031 0.36754757 5.7136011e-39
3.2621646 -0.92538846 0.37831131 6.7324432e-39
3.3080001 -0.92185271 0.35941887 2.1168883e-39
3.6275582 -0.92609829 0.36538494 4.6004166e-39
3.7225275 -0.93381041 0.38870832 1.1970928e-39
3.8898678 -0.94068676 0.38547751 1.3814841e-39
4.0012531 -0.93415195 0.3755888 1.9335761e-39
2.9773245 -0.86321682 0.38708103 5.0613836e-39
3.0222104 -0.88956553 0.37725538 2.4842289e-39
3.0883961 -0.88225418 0.35335311 1.19709e-39
3.1149468 -0.86147469 0.37724811 7.3879047e-39
3.1642554 -0.86428535 0.36807504 4.7858771e-39
3.2192981 -0.87252533 0.36965981 7.0990635e-39
3.2735176 -0.85250145 0.35113779 2.5764274e-39
3.5851038 -0.85966736 0.37732291 2.760827e-39
3.6364174 -0.88468558 0.39147907 1.1970928e-39
3.7560868 -0.85452467 0.37621883 1.4736797e-39
3.8219442 -0.89683384 0.38078174 1.4736769e-39
3.946496 -0.89487249 0.37233141 2.0257717e-39
2.9286947 -0.81388277 0.39300343 5.9822623e-39
2.95766 -0.80660564 0.36632004 4.2330578e-39
3.0247114 -0.83591282 0.35335699 5.4308779e-39
3.1245036 -0.81831098 0.36533123 5.5266847e-39
3.1737607 -0.82777435 0.37634799 5.3386851e-39
3.228991 -0.83815801 0.36849213 6.2693028e-39
3.3232996 -0.84393001 0.35556066 9.8497942e-39
3.5743873 -0.82975042 0.38723803 1.2889283e-39
3.6495991 -0.83863735 0.39980918 1.748466e-39
3.6553063 -0.82704484 0.37807608 2.3934892e-39
3.7188067 -0.82019067 0.38431549 1.3818456e-39
3.8254108 -0.83482116 0.36386266 1.7502666e-39
2.9322207 -0.79593408 0.3638733 2.024327e-39
2.9603088 -0.79698849 0.39823392 6.9953254e-39
3.0315187 -0.78044599 0.35877308 6.3513937e-39
3.0704553 -0.76587117 0.37322754 7.0032553e-39
3.1219757 -0.7667039 0.36599514 7.825086e-39
3.1725674 -0.77567828 0.37126702 8.3753731e-39
3.2306533 -0.76211751 0.3645131 8.5673356e-39
3.2680786 -0.76067293 0.3536112 9.5739219e-39
3.3235195 -0.79457927 0.35374764 8.7441669e-39
3.5566392 -0.78452897 0.39308417 1.2889297e-39
3.6285043 -0.78095138 0.38600266 1.4729609e-39
3.6852925 -0.7824707 0.37257308 1.4736797e-39
3.7611599 -0.78550172 0.37187114 2.9498986e-39
2.9722412 -0.74073845 0.38782161 7.9162153e-39
3.0202909 -0.73468852 0.38378942 6.2588477e-39
3.0662875 -0.72752845 0.37559301 6.7187343e-39
3.1209352 -0.72638845 0.38003954 7.2726325e-39
3.1690547 -0.7280767 0.37367439 8.3818598e-39
3.2203274 -0.71466386 0.36804467 8.6598928e-39
3.2732832 -0.72573906 0.37806657 8.1942273e-39
3.304822 -0.70112711 0.36307415 7.7357715e-39
3.5130124 -0.71882576 0.37529564 2.2087238e-39
3.5602899 -0.73254931 0.36002266 2.3009195e-39
3.6314924 -0.72261345 0.37013781 1.6580696e-39
3.6736832 -0.74270731 0.36686406 1.6580682e-39
3.7526865 -0.72431684 0.36302117 3.2290008e-39
2.9230466 -0.68091375 0.37802929 1.097596e-38
3.1207104 -0.69746459 0.35126454 3.6798854e-39
3.170608 -0.6880064 0.38485378 9.1140242e-39
3.2267783 -0.6737175 0.37213588 9.207659e-39
3.2743087 -0.67622703 0.37739962 8.8432008e-39
3.3190646 -0.67631984 0.38131973 8.3919603e-39
3.3667142 -0.66464847 0.38650051 9.0495925e-39
3.4317236 -0.65158385 0.35676706 8.8817814e-39
3.4742694 -0.67884451 0.39155266 2.4842289e-39
3.5214331 -0.69186801 0.36739951 2.3009181e-39
3.561173 -0.66170663 0.38457251 1.565874e-39
3.6080461 -0.69037831 0.38180679 1.5658754e-39
3.7391839 -0.65898061 0.37757701 8.3192147e-40
2.7878823 -0.60438496 0.3755905 1.3356078e-38
2.8308582 -0.63507742 0.37383378 1.2074732e-38
3.1779115 -0.63561356 0.37092322 8.8392408e-39
3.2193055 -0.63575923 0.36888012 9.5850987e-39
3.2755628 -0.63008124 0.37932938 8.751008e-39
3.325196 -0.63194197 0.37079391 8.8522224e-39
3.3656569 -0.61517876 0.37193975 8.0293099e-39
3.4230826 -0.61619532 0.37256727 8.8608754e-39
3.4681442 -0.62066245 0.37514541 8.9570311e-39
3.5294788 -0.62055057 0.38562682 5.8068771e-39
3.6760545 -0.61234182 0.39361686 5.8104813e-39
2.7417645 -0.57495302 0.3519581 1.3628337e-38
2.7672207 -0.56483328 0.39236963 1.3810554e-38
3.1774683 -0.58254838 0.39483386 9.0189391e-39
3.2205632 -0.56988776 0.38536683 9.2955274e-39
3.2722569 -0.55415249 0.37476778 1.0124931e-38
3.3320286 -0.58109796 0.37219065 6.915031e-39
3.3705256 -0.56896216 0.37495461 7.6558386e-39
3.4254727 -0.57321358 0.37995371 1.2088081e-38
3.4688103 -0.57608581 0.3771404 1.0335644e-38
3.5118756 -0.57032198 0.36459887 1.402707e-38
3.5856018 -0.5695734 0.37771702 1.1533463e-38
3.6144328 -0.58762068 0.37014556 7.8387865e-39
2.7450213 -0.52077061 0.3566978 1.3810192e-38
2.7643807 -0.52832544 0.39473248 1.390239e-38
3.2209082 -0.52179992 0.37248969 7.5668884e-39
3.2726805 -0.52401829 0.3762131 8.9285469e-39
3.3302493 -0.52755815 0.36959392 9.4892947e-39
3.3709595 -0.53204155 0.37339386 9.3377135e-39
3.4250562 -0.526124 0.38015628 1.0256066e-38
3.4689472 -0.52614045 0.37995407 1.2185323e-38
3.5171416 -0.53262156 0.37685418 1.1626379e-38
3.561656 -0.53699738 0.36370227 1.3376295e-38
3.6652308 -0.53982264 0.39782014 9.706496e-39
2.7383194 -0.46823525 0.38390046 1.3994586e-38
3.1818452 -0.47030181 0.37788332 8.3214049e-39
3.2290869 -0.47522873 0.39999992 8.413239e-39
3.279052 -0.48268738 0.37151229 1.0315444e-38
3.3413763 -0.47209495 0.38170519 8.9422558e-39
3.3827262 -0.47244048 0.37053055 1.0892062e-38
3.422905 -0.47588837 0.37798551 1.062521e-38
3.4709618 -0.48325443 0.37346372 1.1081503e-38
3.5146511 -0.48596159 0.37876955 1.1723634e-38
3.5720458 -0.45532045 0.39015895 1.2099265e-38
3.6239247 -0.47392797 0.39845747 9.8912474e-39
2.7213631 -0.41309011 0.37585926 1.408606e-38
3.0639277 -0.40934837 0.36081547 8.6873022e-39
3.1230936 -0.43110889 0.37086236 8.5961884e-39
3.2677476 -0.4343082 0.36588585 8.5619224e-39
3.3289456 -0.43150327 0.36374694 1.3002463e-38
3.3797455 -0.42466128 0.37741417 1.0431085e-38
3.4296019 -0.42322835 0.37210712 9.8829601e-39
3.4655519 -0.42834139 0.37915418 1.0799868e-38
3.5347211 -0.43248594 0.37881729 1.1087274e-38
2.731122 -0.35861957 0.37789434 1.3623998e-38
2.9910555 -0.35052392 0.3825092 1.2075095e-38
3.0107818 -0.37483433 0.36271197 1.0335285e-38
3.0723243 -0.39802545 0.38121939 9.6942458e-39
3.1836033 -0.35690978 0.38706467 1.7890633e-38
3.2246675 -0.38028765 0.39840242 1.7798437e-38
3.2774513 -0.37790012 0.37353629 1.4755259e-38
3.3384192 -0.3725304 0.37998119 1.2915315e-38
3.3712738 -0.38176319 0.3669543 1.1713891e-38
3.4285026 -0.36642566 0.37752005 1.1162158e-38
3.4707959 -0.37640575 0.37252474 1.3478238e-38
2.7304654 -0.31564981 0.37146157 1.3900942e-38
2.9369602 -0.32191345 0.36617929 1.3263174e-38
2.9682755 -0.33868971 0.35904372 1.2439911e-38
3.2467997 -0.31183034 0.39218029 9.3333891e-39
3.274565 -0.32848695 0.37732252 1.356285e-38
3.3260849 -0.32477984 0.37606239 1.4758868e-38
3.3764074 -0.32579741 0.37654966 1.3196952e-38
3.4159145 -0.32338494 0.37047616 1.1070324e-38
3.4783463 -0.30384403 0.35311496 7.6374452e-39
2.7167091 -0.27898282 0.37877104 1.4177171e-38
2.915822 -0.29500228 0.36943078 1.3534689e-38
3.2127056 -0.27694625 0.38914758 9.2401088e-39
3.2833157 -0.28866547 0.37441939 8.6901819e-39
3.3326111 -0.27692759 0.3726432 1.2000932e-38
3.3729718 -0.27558258 0.36823326 1.236575e-38
3.4219513 -0.28739882 0.37642637 1.1259761e-38
3.4631305 -0.2762019 0.37555972 1.0056892e-38
3.5262451 -0.26666269 0.35668764 1.2076914e-38
2.7102609 -0.20318402 0.38065451 1.3716194e-38
2.894721 -0.24520504 0.37713337 1.3626165e-38
3.142379 -0.20747343 0.37817916 8.9617227e-39
3.1588762 -0.24059725 0.38463178 9.1471929e-39
3.2281506 -0.22756045 0.3612361 8.7798551e-39
3.2703176 -0.21681029 0.37665543 8.9548661e-39
3.32781 -0.23467837 0.36794451 1.0434326e-38
3.3719742 -0.23215121 0.37569121 1.4112055e-38
3.412503 -0.23192883 0.38434061 1.3290227e-38
3.4823883 -0.22493124 0.37486163 1.4672078e-38
3.5350525 -0.22779454 0.37845305 6.9960456e-39
3.5776157 -0.23441835 0.36635038 1.5873533e-38
2.690547 -0.19136424 0.35143059 1.3624e-38
2.7101789 -0.16702984 0.38401544 1.3716554e-38
2.8783615 -0.16772139 0.37892517 1.3902033e-38
3.0860636 -0.1665671 0.38114306 8.3174379e-39
3.1226313 -0.19629937 0.39663619 8.8691669e-39
3.1748016 -0.18125187 0.38121364 8.1330438e-39
3.2201009 -0.16965154 0.36572966 9.5022665e-39
3.2657855 -0.17999586 0.36890849 1.0338156e-38
3.332346 -0.1784147 0.38159469 1.2733088e-38
3.3725438 -0.18344326 0.37853473 1.0438293e-38
3.4048793 -0.18347417 0.3901079 1.7704811e-38
3.4807363 -0.17824687 0.38274673 1.4306191e-38
3.5174456 -0.19814529 0.37825197 1.5871722e-38
2.6928818 -0.13558511 0.38013729 1.3624721e-38
2.877346 -0.11240762 0.3855657 8.7715595e-39
2.9450486 -0.10635796 0.39631182 1.3267857e-38
2.9890676 -0.12646598 0.36938989 1.0328785e-38
3.0250885 -0.11144953 0.38541177 9.2271244e-39
3.0683277 -0.11974281 0.37776166 8.5943835e-39
3.1280022 -0.12420682 0.3723681 9.9704586e-39
3.1661742 -0.13510698 0.36991763 9.6841369e-39
3.2108471 -0.11377019 0.38085184 8.7668721e-39
3.2922416 -0.136563 0.37850791 9.4234225e-39
3.3230245 -0.11683416 0.37592775 9.3337492e-39
3.3789613 -0.12795423 0.38324574 1.6419832e-38
3.4246871 -0.13323206 0.37689385 1.7706245e-38
3.4715829 -0.14703728 0.39951217 1.1086907e-38
3.5916767 -0.14787982 0.35943711 7.4847891e-39
3.6257076 -0.14342372 0.37184358 7.7638983e-39
3.672612 -0.11932864 0.36360812 8.592943e-39
3.7119265 -0.13591774 0.39879942 8.3170749e-39
2.6944265 -0.092095733 0.36159974 1.3348856e-38
2.7942235 -0.062080353 0.37209675 1.381056e-38
2.8329146 -0.076181524 0.3719891 1.2066787e-38
2.8859043 -0.066463843 0.37373182 1.3264606e-38
2.9322846 -0.086528048 0.38224226 9.3207634e-39
2.9712994 -0.087868348 0.37784505 1.0058327e-38
3.0823133 -0.053914845 0.38985169 8.4114356e-39
3.1124287 -0.065929465 0.38044345 8.4074671e-39
3.1878994 -0.067449085 0.37492299 8.5882528e-39
3.2149856 -0.088817418 0.3651379 8.8666446e-39
3.2771678 -0.08353366 0.37307122 9.3333905e-39
3.3233509 -0.069105297 0.37446475 1.2368991e-38
3.3703868 -0.077113591 0.37643871 1.8811147e-38
3.4459777 -0.06936802 0.38189149 2.0190844e-38
3.4932141 -0.090575412 0.37532312 2.1295024e-38
3.5130134 -0.076866701 0.35204184 2.1112075e-38
3.7161446 -0.095904455 0.3810814 8.86989e-39
2.6899781 -0.034064367 0.37613389 1.4363012e-38
2.7722905 -0.018566284 0.37472484 1.3257386e-38
2.823689 -0.025408918 0.37016818 1.4090394e-38
2.8727911 -0.017799327 0.37566534 1.381381e-38
2.9002826 -0.0049866885 0.35608587 1.344901e-38
2.9759586 -0.031975988 0.38533753 8.4049433e-39
3.0219357 -0.027703241 0.36315838 8.5947422e-39
3.0570071 -0.025431022 0.35293981 8.5018277e-39
3.1086864 -0.040762737 0.36099184 8.3192399e-39
3.1909268 -0.043001518 0.36259681 7.7354128e-39
3.2301817 -0.02668424 0.37778684 9.5102091e-39
3.2661736 -0.02674388 0.37453914 8.4063825e-39
3.3779905 -0.031885978 0.37756953 1.614325e-38
3.4128568 -0.045273751 0.38620222 1.641587e-38
3.6695869 -0.026656948 0.37946108 9.6949647e-39
2.6803095 0.011855386 0.37502509 1.4639599e-38
2.7412925 0.019446701 0.3708764 1.2704571e-38
2.784693 0.030648137 0.37302282 1.4179343e-38
2.8210137 0.024799168 0.37922579 1.4549206e-38
2.8663082 0.028563514 0.37273338 1.4366619e-38
2.9136736 0.014915794 0.37628636 1.4366979e-38
3.0400629 0.041581213 0.38853756 1.0252104e-38
3.0998917 0.044908717 0.39664099 7.7602914e-39
3.1468937 0.033037022 0.35998774 7.9418002e-39
3.1760271 0.028322715 0.37574512 9.4208973e-39
3.2333012 0.0082184207 0.37487438 7.8485242e-39
3.2783093 0.020276424 0.37034553 8.8684438e-39
3.3622401 0.016727567 0.38180494 1.228329e-38
3.579329 0.045802489 0.35758454 1.4476873e-38
3.6166627 0.015746124 0.37173593 1.1900447e-38
2.6877792 0.079361901 0.35498971 1.4178978e-38
2.7422295 0.092014946 0.37551767 1.353325e-38
2.7811952 0.075871453 0.37475187 1.4180061e-38
2.8222389 0.071417086 0.37585026 1.4180782e-38
2.8735528 0.090199448 0.37127382 1.2801093e-38
2.9276433 0.080535874 0.37394133 1.0324811e-38
2.9767718 0.062457293 0.37157598 9.7821044e-39
3.0373683 0.066106781 0.38291222 6.7425339e-39
3.0686374 0.054429412 0.36162317 8.1225789e-39
3.1295509 0.052049853 0.37630635 7.0198439e-39
3.3218551 0.087318301 0.38026398 1.3385672e-38
3.3702276 0.070384435 0.36166793 1.0715962e-38
3.5543509 0.081618741 0.36109006 1.5398468e-38
2.6577141 0.13554123 0.38633746 1.4732874e-38
2.7329645 0.13141069 0.37562823 1.3716562e-38
2.7722402 0.12200432 0.37016919 1.4086784e-38
2.8211966 0.12574826 0.37422717 1.3165908e-38
2.8570056 0.11664206 0.38322353 1.1322358e-38
3.2314677 0.14339538 0.3838762 1.1359528e-38
3.2798381 0.12258035 0.37950489 1.1268054e-38
3.3211086 0.12455887 0.37061024 9.7950875e-39
3.3557501 0.11032221 0.35572261 9.5202999e-39
3.5232482 0.12918721 0.36175424 1.3558523e-38
2.6304207 0.17757449 0.38371238 1.4732512e-38
2.7342818 0.17824337 0.36354929 1.3717283e-38
2.7679081 0.17596836 0.38208365 1.399531e-38
2.8163168 0.16642086 0.3673003 1.3995669e-38
3.0289226 0.19840275 0.39212003 1.226381e-38
3.2158761 0.17462012 0.37529293 1.1541754e-38
3.2803686 0.16484565 0.37367737 9.7003667e-39
3.3228855 0.1572198 0.38096258 9.5170587e-39
3.550766 0.17892426 0.3725912 9.1360218e-39
