# .PCD v0.7 - Point Cloud Data file format
VERSION 0.7
FIELDS x y z rgb
SIZE 4 4 4 4
TYPE F F F F
COUNT 1 1 1 1
WIDTH 1086
HEIGHT 1
VIEWPOINT 0 0 0 1 0 0 0
POINTS 1086
DATA ascii
 2.899187 -0.281118  0.008652  1.234084e-38
 0.583885 -0.224568  0.005382  3.969817e-39
 2.706084 -0.240910  0.025199  1.307117e-38
 2.866557 -0.238453  0.020510  1.288715e-38
 0.525155 -0.154323  0.027746  1.297954e-39
 0.566486 -0.175571  0.009133  3.416282e-39
 2.695701 -0.168400  0.027132  1.251836e-38
 2.711071 -0.196285  0.007153  1.288606e-38
 2.866835 -0.186843  0.035140  1.279459e-38
 0.482218 -0.112685  0.029393  2.214855e-39
 0.546507 -0.135315  0.024414  2.497220e-39
 0.569177 -0.119246  0.018163  2.958196e-39
 2.685007 -0.131795  0.043976  1.289402e-38
 2.864042 -0.124133  0.029414  1.297934e-38
 2.979149 -0.113613  0.020199  9.967573e-39
 0.433129 -0.065622  0.017865  3.967296e-39
 0.460785 -0.088100  0.015916  2.675831e-39
 0.549969 -0.055055  0.017079  3.881598e-39
 0.572420 -0.056512  0.021355  4.985778e-39
 0.626034 -0.088295  0.039298  3.148000e-39
 0.685483 -0.056720  0.028030  2.316796e-39
 2.675749 -0.078598  0.028173  1.252306e-38
 2.838976 -0.070871  0.027650  1.326027e-38
 2.885948 -0.072746  0.017885  1.206534e-38
 2.926994 -0.071475  0.028126  1.170450e-38
 2.991866 -0.087546  0.012373  1.059310e-38
 0.417073 -0.026262  0.017438  6.181074e-39
 0.591856 -0.044964  0.023377  5.354560e-39
 0.622468 -0.022915  0.013763  3.697204e-39
 0.720848 -0.033251  0.017556  3.702975e-39
 0.927920 -0.046798  0.049198  1.757127e-39
 0.954597 -0.032587  0.029636  1.941877e-39
 2.660302 -0.021349  0.025532  1.307443e-38
 2.789245 -0.016989  0.018096  1.344068e-38
 2.820095 -0.023882  0.016569  1.288968e-38
 2.875447 -0.031083  0.030667  1.252812e-38
 2.929540 -0.016595  0.031525  9.326535e-39
 2.984329 -0.010356  0.010705  1.317422e-38
 0.141192  0.031974  0.012689  3.782908e-39
 0.169859  0.032995  0.028522  4.151330e-39
 0.428150  0.022400  0.032329  1.419703e-38
 0.675762  0.008057  0.047383  3.605007e-39
 0.719805  0.037024  0.034805  4.989383e-39
 0.829892  0.003340  0.022925  5.455786e-39
 2.678739  0.024641  0.038907  1.316265e-38
 2.788444  0.027945  0.022740  1.279568e-38
 2.817626  0.021948  0.025065  1.325702e-38
 2.872898  0.015745  0.023593  1.335175e-38
 2.944526  0.016566  0.049983  1.371944e-38
 2.992053  0.028418  0.020395  1.124424e-38
 0.098140  0.064264  0.007061  5.628987e-39
 0.113681  0.096703  0.043461  2.675114e-39
 0.443520  0.058963  0.034328  2.258067e-38
 0.454986  0.088548  0.031565  2.008816e-38
 0.518969  0.079594  0.015001  1.704681e-38
 0.737208  0.065386  0.021915  5.083384e-39
 2.712626  0.067196  0.016100  1.288606e-38
 2.775545  0.075837  0.019390  1.288751e-38
 2.827373  0.079824  0.020302  1.288859e-38
 2.886545  0.081797  0.015425  1.132128e-38
 2.968241  0.066432  0.021987  1.124713e-38
 0.183424  0.121729  0.033478  2.769480e-39
 0.464570  0.102734  0.032689  1.815457e-38
 0.639894  0.127437  0.036764  1.372379e-38
 0.653406  0.120128  0.025319  1.409293e-38
 2.698948  0.123256  0.047481  1.353251e-38
 2.741242  0.125439  0.035984  1.187336e-38
 2.770536  0.125908  0.028233  1.261057e-38
 2.820444  0.124152  0.031025  1.390203e-38
 2.874450  0.111334  0.016803  1.592780e-38
 0.157533  0.179920  0.032989  3.230813e-39
 0.640919  0.177247  0.023564  1.059167e-38
 0.665312  0.185301  0.017153  1.133212e-38
 2.698794  0.199830  0.010888  1.297897e-38
 2.738052  0.170684  0.032678  1.288679e-38
 2.769636  0.173227  0.032611  1.344177e-38
 2.817607  0.170573  0.022408  1.316482e-38
 2.856345  0.157801  0.026414  1.888817e-38
 0.154375  0.226113  0.018774  3.597430e-39
 0.632949  0.208012  0.019288  1.326391e-38
 0.659341  0.203374  0.023912  1.520218e-38
 2.691259  0.228143  0.035430  1.307009e-38
 2.734573  0.222331  0.026102  1.270312e-38
 2.778341  0.221638  0.029129  1.353324e-38
 2.808164  0.216737  0.027038  1.215392e-38
 2.941775  0.237789  0.032976  1.390310e-38
 2.955394  0.227396  0.004508  1.390238e-38
 2.689002  0.285107  0.027233  1.215031e-38
 2.721964  0.269603  0.029547  1.334849e-38
 2.762018  0.266488  0.033908  1.353216e-38
 2.829353  0.266320  0.018753  1.307154e-38
 2.866631  0.271434  0.040430  1.630344e-38
 2.907541  0.256614  0.022616  1.381090e-38
 0.377244  0.324494  0.029464  6.082378e-39
 0.426845  0.338770  0.032957  5.065712e-39
 1.369258  0.321934  0.025346  1.087619e-38
 1.425904  0.309873  0.007934  8.753881e-39
 2.648109  0.344557  0.047661  1.168897e-38
 2.679848  0.325814  0.020611  1.224178e-38
 2.721758  0.318731  0.029838  1.353252e-38
 2.798570  0.323333  0.015356  1.297898e-38
 2.832957  0.319521  0.029625  1.491942e-38
 2.850430  0.310388  0.021338  1.870342e-38
 2.998989  0.349495  0.005848  1.270421e-38
 0.184583  0.377272  0.023895  2.953508e-39
 0.472867  0.380395  0.042377  5.158268e-39
 1.428552  0.362082  0.026934  6.453688e-39
 1.481435  0.396057  0.013452  1.204682e-39
 2.637056  0.375654  0.027280  1.104397e-38
 2.671147  0.374004  0.026275  1.288751e-38
 2.710526  0.369211  0.028396  1.408641e-38
 2.785389  0.375865  0.016998  1.344068e-38
 2.825070  0.368948  0.036140  1.768782e-38
 2.938557  0.389412  0.002723  1.252018e-38
 2.980610  0.377976  0.022490  1.251982e-38
 0.197887  0.410960  0.046786  4.890708e-39
 0.202788  0.408867  0.045734  1.909029e-38
 0.533307  0.422375  0.042061  5.434493e-39
 0.577130  0.448315  0.035771  5.803270e-39
 1.492069  0.417596  0.001938  9.291772e-40
 1.507790  0.431826  0.027737  1.113206e-39
 2.599721  0.445931  0.011649  1.150459e-38
 2.635993  0.421319  0.033745  1.224179e-38
 2.670147  0.424933  0.022442  1.316518e-38
 2.727104  0.419447  0.018095  1.307298e-38
 2.786017  0.425069  0.010009  1.473756e-38
 2.819496  0.418656  0.032530  1.362796e-38
 2.916097  0.418523  0.012884  1.261237e-38
 0.599519  0.479278  0.015200  4.421419e-39
 0.616529  0.459483  0.032135  4.054799e-39
 0.668516  0.486536  0.016036  4.239910e-39
 1.522414  0.483148  0.037759  1.389071e-39
 2.594807  0.497042  0.013826  1.178117e-38
 2.629902  0.476624  0.028117  1.251909e-38
 2.673041  0.468835  0.025027  1.344285e-38
 2.719673  0.480478  0.020662  1.547187e-38
 2.760304  0.473751  0.017242  1.602794e-38
 2.826875  0.482710  0.026628  1.270818e-38
 2.874942  0.478374  0.023507  1.012995e-38
 2.948648  0.487733  0.033685  1.198146e-38
 2.961143  0.492818  0.001949  1.216404e-38
 0.583099  0.506546  0.011976  4.697647e-39
 1.535070  0.532652  0.005180  9.299003e-40
 2.586704  0.529643  0.028294  1.196592e-38
 2.613383  0.524733  0.025385  1.279568e-38
 2.673176  0.533342  0.027684  1.344104e-38
 2.710555  0.516100  0.001633  1.362543e-38
 2.752609  0.546150  0.006065  1.861087e-38
 2.827571  0.529270  0.024764  5.342282e-39
 2.868143  0.517797  0.016854  1.187986e-38
 2.924176  0.528825  0.026059  2.109581e-38
 2.962736  0.541838  0.046374  2.118836e-38
 1.544454  0.584069  0.000708  2.037334e-39
 1.567045  0.576036  0.028809  9.295401e-40
 2.544420  0.592197  0.012132  1.067339e-38
 2.579228  0.577867  0.026888  1.214995e-38
 2.622251  0.577912  0.023940  1.334993e-38
 2.694793  0.559511  0.007740  1.307262e-38
 2.734081  0.583682  0.039675  1.962610e-38
 2.782474  0.567091  0.021927  1.105407e-38
 2.826431  0.575805  0.026464  1.298043e-38
 2.971403  0.582960  0.035302  2.109545e-38
 1.585872  0.610908  0.034330  1.758211e-39
 2.537633  0.633177  0.028127  1.233542e-38
 2.570473  0.623236  0.026109  1.279604e-38
 2.626585  0.604529  0.026601  1.381163e-38
 2.676853  0.637693  0.003125  1.999669e-38
 2.702184  0.611102  0.017332  1.935023e-38
 2.789894  0.619324  0.014598  6.998190e-39
 2.809712  0.631733  0.030393  8.931407e-39
 2.853930  0.644095  0.006190  1.297934e-38
 2.937524  0.638299  0.024293  2.091070e-38
 2.961455  0.622496  0.035332  2.081886e-38
 2.528075  0.673626  0.028248  1.168825e-38
 2.571853  0.667751  0.024837  1.288895e-38
 2.623615  0.672601  0.029636  1.556552e-38
 2.733326  0.664630  0.018035  4.888884e-39
 2.788138  0.673595  0.023936  8.472964e-39
 2.866188  0.658660  0.031331  1.298079e-38
 2.916325  0.681161  0.037478  1.648495e-38
 1.785358  0.741761  0.042691  7.181519e-39
 2.473190  0.748517  0.020532  1.205775e-38
 2.528982  0.726924  0.023970  1.196484e-38
 2.571402  0.718069  0.029216  1.224359e-38
 2.634885  0.720861  0.001931  1.907292e-38
 2.651961  0.735456  0.009510  1.907293e-38
 2.727676  0.730639  0.026138  1.215429e-38
 2.781547  0.705151  0.040747  1.215683e-38
 2.848245  0.716309  0.044423  2.155534e-38
 2.873989  0.711009  0.020959  2.118728e-38
 2.971366  0.744761  0.025752  4.512883e-39
 1.283804  0.798004  0.035683  5.341193e-39
 1.322623  0.782716  0.027743  4.235569e-39
 1.378195  0.777173  0.035365  4.235569e-39
 1.487555  0.784557  0.033609  1.299813e-38
 1.516717  0.775918  0.045375  1.401300e-38
 1.784901  0.761344  0.039466  2.395276e-39
 2.478738  0.785415  0.025626  1.049260e-38
 2.521233  0.770491  0.029557  1.215031e-38
 2.567067  0.763177  0.021465  1.362759e-38
 2.672370  0.775726  0.033158  1.630526e-38
 2.705880  0.759242  0.034677  1.206318e-38
 2.818038  0.776985  0.027439  2.081814e-38
 2.914775  0.790234  0.013953  9.237584e-40
 2.965426  0.778342  0.007111  6.475302e-40
 1.288888  0.803253  0.006659  4.603990e-39
 1.325921  0.802728  0.004639  3.499449e-39
 1.433882  0.811494  0.013667  5.434478e-39
 1.829339  0.802177  0.032903  3.687825e-40
 1.876456  0.835626  0.034004  1.291093e-39
 2.478450  0.827673  0.020890  9.940147e-39
 2.523228  0.820979  0.028026  1.307262e-38
 2.568138  0.813325  0.033641  1.371762e-38
 2.648053  0.817830  0.038607  1.353470e-38
 2.675068  0.820523  0.019451  1.620944e-38
 2.744303  0.843269  0.014372  2.017458e-38
 2.774821  0.825034  0.039683  2.091070e-38
 2.828206  0.842580  0.011805  1.200704e-39
 2.861434  0.813871  0.010401  1.292900e-39
 1.231466  0.884112  0.017286  5.259122e-39
 1.288410  0.889396  0.030170  6.454412e-39
 1.342561  0.897944  0.019389  4.611946e-39
 1.365791  0.892261  0.049253  9.311034e-39
 1.915363  0.855607  0.048362  1.383288e-39
 1.950672  0.886060  0.048801  3.871129e-39
 2.436794  0.876304  0.020047  1.132055e-38
 2.474127  0.875333  0.029460  1.122800e-38
 2.522963  0.871981  0.021031  1.288895e-38
 2.570234  0.886431  0.025642  1.151180e-38
 2.612794  0.854026  0.028888  1.944098e-38
 2.661464  0.865426  0.028684  1.482579e-38
 2.714309  0.872210  0.033908  1.989872e-38
 2.825217  0.883288  0.024051  1.015953e-39
 1.180008  0.923763  0.024712  1.060177e-38
 1.268153  0.916112  0.027869  8.573466e-39
 1.383099  0.906620  0.026584  8.760753e-39
 2.036904  0.942220  0.026991  6.083461e-39
 2.441310  0.909481  0.038159  1.132055e-38
 2.479342  0.921564  0.024995  1.233470e-38
 2.517621  0.916531  0.019899  1.233542e-38
 2.573703  0.924342  0.028642  1.086860e-38
 2.630399  0.925681  0.020034  6.631576e-39
 2.671275  0.917373  0.025046  1.298514e-38
 2.776725  0.923943  0.033445  7.195945e-39
 1.123185  0.966083  0.036314  9.957478e-39
 1.389332  0.984206  0.002703  2.499398e-39
 1.544269  0.968393  0.008360  8.665298e-39
 1.570763  0.957269  0.027763  1.013899e-38
 2.442827  0.975309  0.030421  1.141275e-38
 2.476496  0.975857  0.021833  1.242725e-38
 2.540064  0.971929  0.023782  1.354336e-38
 2.582378  0.975580  0.026848  1.022504e-38
 2.624667  0.972470  0.028810  1.464357e-38
 2.673693  0.973221  0.019457  7.646810e-39
 2.703512  0.973488  0.006559  2.212687e-39
 2.751814  0.979359  0.020551  7.934590e-39
 1.292170  1.037341  0.026446  1.574914e-39
 1.320764  1.033941  0.024139  1.760390e-39
 1.354817  1.002832  0.024031  1.852947e-39
 1.431856  1.017894  0.014447  2.129171e-39
 1.479323  1.041554  0.016949  1.389075e-39
 1.512967  1.012259  0.007557  7.100866e-39
 1.579563  1.027797  0.031734  4.885278e-39
 2.397280  1.048658  0.016812  1.362651e-38
 2.432832  1.021480  0.001206  1.344176e-38
 2.469661  1.020006  0.026036  1.187589e-38
 2.525927  1.025399  0.025754  1.178912e-38
 2.563833  1.015913  0.022417  1.915755e-38
 2.626732  1.018995  0.028662  8.851129e-39
 2.685927  1.034611  0.023215  7.386412e-40
 2.718315  1.029167  0.021922  2.676912e-39
 2.772531  1.014382  0.009331  1.108866e-39
 1.258585  1.074410  0.018689  4.154221e-39
 1.525507  1.053955  0.024501  2.032998e-39
 1.576406  1.075852  0.035477  1.848244e-39
 1.610714  1.096499  0.041593  1.663854e-39
 2.261961  1.079252  0.007049  1.087908e-38
 2.378953  1.059982  0.038603  1.371907e-38
 2.446602  1.057868  0.002380  1.436407e-38
 2.456530  1.080849  0.035853  1.399710e-38
 2.530718  1.069018  0.021668  5.800021e-39
 2.576214  1.076233  0.020795  8.107075e-39
 2.623677  1.078239  0.031657  7.647174e-39
 2.671775  1.072797  0.024420  1.014868e-39
 2.709463  1.086515  0.020475  4.341130e-39
 2.770577  1.078652  0.022982  2.676917e-39
 1.240298  1.128762  0.028922  1.392262e-38
 2.243876  1.146118  0.024832  1.382898e-38
 2.270295  1.101616  0.044476  1.124786e-38
 2.317521  1.121975  0.021533  1.235529e-38
 2.374878  1.135628  0.025682  1.318071e-38
 2.420917  1.122931  0.014548  1.289618e-38
 2.477141  1.138779  0.026309  1.114808e-38
 2.518691  1.129675  0.019188  7.093640e-39
 2.584021  1.124021  0.024934  3.778929e-39
 2.621259  1.119854  0.023529  6.270016e-39
 2.675591  1.129614  0.027101  8.115736e-39
 2.728435  1.113380  0.037370  1.273996e-38
 2.769807  1.125534  0.025270  8.677211e-39
 2.800851  1.139907  0.013362  1.384811e-38
 2.231505  1.164556  0.025852  1.373714e-38
 2.282045  1.165400  0.018754  1.382862e-38
 2.329406  1.171670  0.024375  1.272371e-38
 2.366587  1.182889  0.030299  1.152517e-38
 2.421674  1.167269  0.027152  1.161556e-38
 2.470584  1.176098  0.025664  8.109960e-39
 2.516746  1.186978  0.021716  6.453334e-39
 2.572380  1.175372  0.031595  7.560755e-39
 2.622201  1.170416  0.024205  6.085985e-39
 2.660976  1.160524  0.021187  3.229368e-39
 2.720351  1.163647  0.026076  8.945496e-39
 2.771776  1.171448  0.019018  1.052040e-38
 2.275714  1.220496  0.034670  1.115566e-38
 2.312998  1.229721  0.016478  1.217126e-38
 2.370875  1.226098  0.024514  1.078724e-38
 2.421624  1.212878  0.016966  8.206492e-39
 2.469797  1.227821  0.034826  9.586538e-39
 2.531120  1.230928  0.028834  5.070395e-39
 2.583147  1.224370  0.016751  2.767305e-39
 2.629525  1.214526  0.015162  1.096369e-38
 2.671836  1.231177  0.024626  9.397093e-39
 2.723862  1.226360  0.019598  7.849613e-39
 2.205043  1.276605  0.026049  1.411025e-38
 2.270067  1.276139  0.029734  1.337124e-38
 2.333111  1.279954  0.025001  1.235493e-38
 2.368600  1.274728  0.017803  1.281771e-38
 2.426694  1.279026  0.025901  1.244929e-38
 2.485935  1.281522  0.028438  3.043169e-39
 2.524104  1.285622  0.023660  2.029377e-39
 2.571907  1.269779  0.025766  4.890331e-39
 2.620549  1.281998  0.025095  3.409429e-39
 2.705674  1.267411  0.011990  8.222730e-39
 2.213391  1.322810  0.023507  1.411025e-38
 2.285311  1.327279  0.015922  1.281663e-38
 2.327637  1.329900  0.019885  1.226309e-38
 2.367762  1.324158  0.023803  1.374075e-38
 2.424036  1.325240  0.028569  1.254112e-38
 2.479374  1.308881  0.029086  5.070751e-39
 2.518237  1.317119  0.022952  5.901234e-39
 2.594837  1.302980  0.043159  2.308496e-39
 2.628776  1.332147  0.023288  7.290306e-39
 2.670382  1.322639  0.018601  6.932343e-39
 2.192405  1.391523  0.022222  1.355707e-38
 2.235667  1.382980  0.022686  1.290954e-38
 2.278681  1.373643  0.022248  1.217090e-38
 2.319985  1.370117  0.023313  1.198795e-38
 2.374939  1.364031  0.017661  1.346344e-38
 2.455507  1.398415  0.011778  1.383078e-38
 2.505848  1.384642  0.032110  1.383078e-38
 2.580233  1.353358  0.002814  1.756397e-39
 2.615702  1.372664  0.033050  7.657642e-39
 2.662711  1.380405  0.023401  5.720812e-39
 2.725054  1.376536  0.022319  6.192970e-39
 2.181809  1.419091  0.020500  1.484818e-38
 2.224751  1.414502  0.029769  1.318469e-38
 2.270027  1.421735  0.029093  1.198650e-38
 2.316669  1.424579  0.031494  1.051283e-38
 2.367048  1.421646  0.014924  1.364747e-38
 2.614407  1.419363  0.031563  1.664211e-39
 2.703516  1.438557  0.000235  1.429717e-38
 2.788973  1.434922  0.033257  6.100774e-39
 2.184882  1.471215  0.045783  1.263115e-38
 2.215517  1.468918  0.014767  1.198578e-38
 2.261421  1.467647  0.016419  1.143405e-38
 2.302314  1.469144  0.037056  1.641515e-38
 2.362207  1.499276  0.015458  1.373858e-38
 2.480351  1.481738  0.005538  3.972702e-39
 2.569422  1.485603  0.004833  1.512765e-38
 2.617349  1.480255  0.026395  8.766518e-39
 2.697871  1.482849  0.008701  1.494326e-38
 2.777201  1.472558  0.040874  6.191531e-39
 2.800940  1.463765  0.011826  6.100411e-39
 2.181293  1.519774  0.026860  1.263187e-38
 2.219567  1.523919  0.011245  1.198687e-38
 2.375041  1.547110  0.006817  1.383006e-38
 2.484878  1.504863  0.003572  3.421331e-39
 2.527770  1.531078  0.011442  3.328419e-39
 2.561265  1.524650  0.020099  1.521985e-38
 2.612977  1.541087  0.040765  3.789763e-39
 2.658485  1.500669  0.014731  1.512765e-38
 2.775619  1.523157  0.039635  5.913140e-39
 2.816167  1.534899  0.012552  5.912779e-39
 2.168472  1.564491  0.029627  1.217125e-38
 2.222612  1.572367  0.024841  1.180140e-38
 2.266962  1.578831  0.026611  1.595380e-38
 2.316002  1.559087  0.034586  1.392225e-38
 2.353885  1.567256  0.005489  1.392189e-38
 2.596638  1.573358  0.025191  3.881234e-39
 2.624208  1.590610  0.036945  3.697567e-39
 2.666129  1.572085  0.002775  3.875816e-39
 2.713424  1.593696  0.024214  3.321564e-39
 2.762845  1.570986  0.030473  3.418088e-39
 2.093232  1.634775  0.047374  1.235565e-38
 2.128407  1.624641  0.020704  1.180283e-38
 2.173789  1.622348  0.026163  1.235493e-38
 2.226534  1.622157  0.021511  1.383403e-38
 2.261796  1.627914  0.021009  1.585908e-38
 2.607016  1.622426  0.015131  4.250012e-39
 2.656317  1.631833  0.034760  3.881230e-39
 2.757690  1.605512  0.047216  2.492885e-39
 2.035671  1.664781  0.049884  2.305071e-38
 2.077894  1.672112  0.014085  1.290666e-38
 2.133227  1.678543  0.013688  1.373786e-38
 2.171108  1.664457  0.021126  1.309141e-38
 2.220971  1.664405  0.026541  1.290774e-38
 2.265960  1.671976  0.029793  1.069613e-38
 2.066763  1.725725  0.012674  1.797850e-38
 2.118998  1.723573  0.027864  1.309249e-38
 2.155381  1.716581  0.037230  1.263116e-38
 2.226566  1.720870  0.031934  1.253896e-38
 2.268711  1.713572  0.024735  1.217199e-38
 2.077501  1.774221  0.028396  1.797886e-38
 2.124170  1.781396  0.024081  1.327724e-38
 2.155787  1.763441  0.044985  1.299885e-38
 2.082809  1.821076  0.018122  1.724238e-38
 2.126264  1.832840  0.028460  1.549030e-38
 2.082680  1.873359  0.009391  1.300174e-38
 2.127698  1.882042  0.034080  1.512224e-38
 2.161609  1.867043  0.010920  1.281519e-38
 1.981423  1.917119  0.015729  1.318649e-38
 2.021697  1.929765  0.037758  1.309465e-38
 2.071226  1.912206  0.027630  1.521876e-38
 2.134526  1.929467  0.029433  1.290702e-38
 2.177622  1.947374  0.006935  1.299958e-38
 1.987082  1.969001  0.036090  1.318685e-38
 2.038360  1.952672  0.011216  8.023543e-39
 2.067102  1.979770  0.026392  8.114666e-39
 2.119094  1.963202  0.025115  1.327508e-38
 2.177192  1.989511  0.009381  1.318397e-38
 2.761489 -1.806835  0.058892  1.669353e-38
 2.765647 -1.771714  0.068328  1.577085e-38
 2.744252 -1.739397  0.061259  1.650878e-38
 2.725044 -1.669369  0.057323  1.678608e-38
 2.758794 -1.677753  0.074572  1.503436e-38
 2.815619 -1.683225  0.072243  1.484961e-38
 2.799566 -1.604411  0.099602  1.761656e-38
 2.857631 -1.630050  0.083784  8.309114e-39
 2.909745 -1.647973  0.050659  3.427776e-39
 2.773343 -1.577041  0.060149  1.586485e-38
 2.842021 -1.574556  0.074238  1.107320e-38
 2.889047 -1.566831  0.080227  1.587820e-39
 2.669082 -1.509040  0.072796  1.789388e-38
 2.736714 -1.545417  0.053270  1.697084e-38
 2.910864 -1.533703  0.079454  1.127556e-39
 2.960748 -1.517017  0.087293  1.128637e-39
 2.598924 -1.464342  0.054793  1.761729e-38
 2.721077 -1.477005  0.084514  7.913303e-39
 2.831363 -1.454779  0.077195  5.892205e-39
 2.872923 -1.465757  0.086137  5.166152e-39
 2.933174 -1.481688  0.078878  9.431622e-40
 2.976736 -1.476532  0.074147  1.034639e-39
 2.711461 -1.424250  0.063297  7.546684e-39
 2.779962 -1.436275  0.062165  5.524866e-39
 2.841193 -1.409802  0.077105  5.615980e-39
 2.868447 -1.440490  0.062088  1.034277e-39
 2.832811 -1.379506  0.061626  2.946280e-39
 2.875707 -1.364008  0.051783  8.301096e-40
 2.838134 -1.346998  0.083084  7.732862e-39
 2.879850 -1.314184  0.067363  4.143012e-39
 2.932167 -1.287332  0.072094  5.062806e-39
 2.974403 -1.277383  0.077033  5.707811e-39
 2.970781 -1.224770  0.076634  5.523420e-39
 2.967193 -1.197277  0.075139  5.523060e-39
 2.989199 -0.807765  0.091441  5.798570e-39
 2.956965 -0.757334  0.084603  3.866072e-39
 2.954610 -0.720322  0.094481  5.799289e-39
 2.899379 -0.681875  0.080773  5.339033e-39
 2.811427 -0.627119  0.095795  9.665002e-39
 2.772922 -0.583642  0.088838  1.205811e-38
 2.729304 -0.524353  0.067530  1.270239e-38
 2.723234 -0.461516  0.073506  1.279423e-38
 2.752042 -0.406334  0.074737  1.297898e-38
 0.754657 -0.364914  0.051541  1.171135e-38
 2.744580 -0.373452  0.066498  1.297862e-38
 2.718264 -0.313234  0.074026  9.126623e-39
 2.740470 -0.270192  0.067208  1.142286e-38
 2.779198 -0.266173  0.080813  1.233904e-38
 0.571336 -0.224066  0.076389  5.075446e-39
 2.736137 -0.216547  0.086063  1.316301e-38
 2.828850 -0.243911  0.058606  1.298007e-38
 2.887563 -0.216035  0.079233  1.270275e-38
 0.487899 -0.156182  0.076372  3.877258e-39
 0.538137 -0.175279  0.074230  2.124464e-39
 0.559355 -0.190480  0.070479  2.954942e-39
 2.714551 -0.175248  0.074037  1.288823e-38
 2.912054 -0.166575  0.081005  1.297898e-38
 0.470222 -0.123717  0.064296  3.599592e-39
 0.522480 -0.143149  0.073817  3.517141e-39
 0.595934 -0.104788  0.094435  5.267062e-39
 2.684515 -0.120177  0.086958  1.252126e-38
 2.881222 -0.121218  0.094606  1.297935e-38
 2.996582 -0.120954  0.071911  8.416117e-39
 0.439934 -0.073991  0.066071  5.351674e-39
 0.457705 -0.096182  0.060575  3.322645e-39
 0.631357 -0.083466  0.086592  3.517502e-39
 2.678110 -0.085073  0.093369  1.261273e-38
 2.832750 -0.067267  0.055387  1.288751e-38
 2.867025 -0.066564  0.070907  1.298585e-38
 2.923321 -0.078578  0.077148  1.152119e-38
 2.962616 -0.078194  0.079888  1.069756e-38
 0.439651 -0.037754  0.079642  7.564373e-39
 0.468971 -0.008039  0.087994  7.287427e-39
 0.620589 -0.035825  0.074331  4.712075e-39
 0.693134 -0.047100  0.076440  3.979563e-39
 0.724997 -0.026909  0.072608  3.332390e-39
 0.787190 -0.011597  0.090228  3.789397e-39
 0.863036 -0.029060  0.084681  1.663483e-39
 0.944730 -0.036987  0.050325  2.126270e-39
 2.687467 -0.031976  0.078141  1.298115e-38
 2.732749 -0.016265  0.066181  1.196556e-38
 2.780398 -0.027833  0.076385  1.224143e-38
 2.820647 -0.023930  0.068272  1.399494e-38
 2.858890 -0.022099  0.070315  1.270276e-38
 2.938463 -0.021159  0.064139  9.599154e-39
 2.988368 -0.017632  0.062806  1.052039e-38
 0.464004  0.001279  0.073004  1.033060e-38
 0.688072  0.011540  0.091870  5.543640e-39
 0.732928  0.035583  0.081811  5.819867e-39
 2.684089  0.023790  0.074773  1.316229e-38
 2.738230  0.017156  0.060581  1.187372e-38
 2.784661  0.031040  0.072967  1.362508e-38
 2.812953  0.027285  0.071231  1.371872e-38
 2.875860  0.012733  0.073390  1.381164e-38
 2.960149  0.001284  0.084558  1.024921e-38
 0.097161  0.078774  0.080823  2.493613e-39
 0.140691  0.053381  0.083870  4.985423e-39
 0.169286  0.086516  0.071677  1.357080e-38
 0.473417  0.073607  0.069203  2.230552e-38
 0.500490  0.073865  0.098548  2.228786e-38
 0.772266  0.070716  0.067564  7.574109e-39
 0.809203  0.089742  0.079468  8.960285e-39
 2.679593  0.078443  0.071462  1.297862e-38
 2.734853  0.066066  0.077914  1.307118e-38
 2.782299  0.074420  0.073602  1.353361e-38
 2.826483  0.090603  0.083768  1.215067e-38
 2.873038  0.075820  0.064839  1.215031e-38
 2.925644  0.072392  0.081936  1.178587e-38
 2.981857  0.063123  0.093717  1.077966e-38
 0.176429  0.135095  0.084648  1.660640e-38
 0.236583  0.134555  0.073765  1.106925e-38
 0.485072  0.110340  0.074703  2.184168e-38
 0.501549  0.122963  0.097343  2.276472e-38
 0.825824  0.100514  0.091570  1.107970e-38
 2.687433  0.124209  0.094744  1.353215e-38
 2.744423  0.124254  0.083569  1.288644e-38
 2.773132  0.128298  0.073584  1.307226e-38
 2.808157  0.120996  0.077840  1.325810e-38
 2.874589  0.135175  0.075974  1.833211e-38
 2.913346  0.106121  0.075369  1.620511e-38
 2.676801  0.173914  0.097262  1.325557e-38
 2.730795  0.172905  0.081316  1.297935e-38
 2.772989  0.170986  0.077564  1.316482e-38
 2.817060  0.177335  0.075377  1.463995e-38
 2.882321  0.179855  0.058938  1.916512e-38
 2.683765  0.228555  0.079051  1.242581e-38
 2.723526  0.222121  0.078946  1.288679e-38
 2.785687  0.224552  0.072715  1.371763e-38
 2.806564  0.226366  0.097149  1.289077e-38
 2.886609  0.231661  0.081678  1.778001e-38
 2.910664  0.227851  0.081419  1.417897e-38
 1.379299  0.295648  0.071240  1.244351e-38
 2.685194  0.275843  0.084638  1.297971e-38
 2.716653  0.272554  0.077264  1.334849e-38
 2.766675  0.266495  0.079845  1.408605e-38
 2.835773  0.275917  0.073861  1.611833e-38
 2.868568  0.265196  0.092246  1.944098e-38
 1.363072  0.326358  0.076992  1.327363e-38
 2.679364  0.323601  0.077881  1.270312e-38
 2.717101  0.328433  0.081065  1.362436e-38
 2.781610  0.305576  0.072569  1.251765e-38
 2.822217  0.322803  0.072373  1.491762e-38
 0.380004  0.367003  0.091605  5.805072e-39
 0.413903  0.383627  0.068155  5.159706e-39
 1.430539  0.364650  0.099183  7.467120e-39
 1.465626  0.386140  0.070337  3.230818e-39
 2.641794  0.367688  0.072553  1.196592e-38
 2.670739  0.375978  0.083297  1.316410e-38
 2.722275  0.376588  0.072476  1.371871e-38
 2.784022  0.376729  0.081491  1.371691e-38
 2.818557  0.370223  0.077621  2.008707e-38
 2.936304  0.394511  0.062829  1.251982e-38
 2.984231  0.366990  0.074958  1.270385e-38
 0.243878  0.435133  0.099765  5.553332e-40
 0.490683  0.412780  0.073046  4.515780e-39
 0.515732  0.426617  0.070049  4.423587e-39
 1.492589  0.439210  0.076551  1.113929e-39
 2.597748  0.444989  0.058250  1.196484e-38
 2.638132  0.430639  0.075711  1.205848e-38
 2.666348  0.423541  0.076664  1.325630e-38
 2.735615  0.444062  0.055608  1.362579e-38
 2.777759  0.415209  0.073409  1.436517e-38
 2.809393  0.419963  0.066027  1.436697e-38
 2.866569  0.444017  0.071915  1.123160e-38
 2.915287  0.427021  0.076808  1.279604e-38
 0.231912  0.463355  0.076804  3.320479e-39
 0.568490  0.464183  0.077321  4.518665e-39
 0.631035  0.486290  0.074471  5.256591e-39
 0.661934  0.495740  0.069357  7.376728e-39
 1.493158  0.469142  0.091507  1.204321e-39
 2.595229  0.481834  0.083790  1.279568e-38
 2.624748  0.477523  0.073594  1.242654e-38
 2.671893  0.472405  0.087784  1.381055e-38
 2.708141  0.496628  0.060722  1.316699e-38
 2.770243  0.469725  0.076838  1.510454e-38
 2.841417  0.475499  0.060430  1.279821e-38
 2.865905  0.479863  0.071812  1.279604e-38
 2.927723  0.490475  0.072509  5.897262e-39
 2.981164  0.484831  0.054287  1.170740e-38
 0.236867  0.514743  0.069961  2.122310e-39
 0.666730  0.508705  0.098457  5.717572e-39
 0.714455  0.542637  0.085252  1.336872e-38
 1.516386  0.504659  0.074335  1.389432e-39
 2.545985  0.545896  0.093163  1.316374e-38
 2.583629  0.529682  0.079002  1.242834e-38
 2.619607  0.528043  0.074651  1.353289e-38
 2.668756  0.516701  0.087229  1.307335e-38
 2.732518  0.524110  0.080964  1.510382e-38
 2.794019  0.530497  0.071758  1.334993e-38
 2.824728  0.520977  0.068323  9.114352e-39
 2.871376  0.522897  0.078478  8.104180e-39
 2.918460  0.507063  0.094059  1.271396e-38
 2.968814  0.543351  0.070675  2.054443e-38
 1.562918  0.565036  0.066769  7.429782e-40
 2.539864  0.574649  0.074229  1.030822e-38
 2.577410  0.575919  0.075416  1.270384e-38
 2.618125  0.574138  0.079615  1.362724e-38
 2.678081  0.572174  0.068453  1.556407e-38
 2.724186  0.559060  0.062328  1.916477e-38
 2.784548  0.565536  0.061113  7.182575e-39
 2.824264  0.573889  0.082851  6.906360e-39
 2.945293  0.593330  0.088093  2.118801e-38
 2.987242  0.574773  0.068053  2.118801e-38
 1.563298  0.604588  0.082879  6.268573e-39
 2.539768  0.626466  0.065252  1.224215e-38
 2.566800  0.622957  0.075318  1.325738e-38
 2.614704  0.621152  0.078133  1.353289e-38
 2.672828  0.642723  0.052983  1.999525e-38
 2.701679  0.602451  0.098412  1.999525e-38
 2.789381  0.610173  0.068371  6.998543e-39
 2.821635  0.629050  0.089063  1.012778e-38
 2.942709  0.647202  0.083657  2.091070e-38
 2.970635  0.618738  0.063500  2.109545e-38
 1.593664  0.652600  0.086892  8.388349e-39
 1.622570  0.675930  0.089551  5.621040e-39
 1.667245  0.681514  0.092275  1.059167e-38
 1.705500  0.697338  0.079568  9.025068e-39
 2.534067  0.671075  0.075630  1.196592e-38
 2.572264  0.682424  0.072681  1.270349e-38
 2.609134  0.658107  0.090400  1.279388e-38
 2.670489  0.699426  0.051730  1.916513e-38
 2.704639  0.663392  0.079578  6.271102e-39
 2.771475  0.665492  0.093894  8.197457e-39
 2.803254  0.650575  0.062997  1.201419e-39
 2.879522  0.688363  0.090902  2.127984e-38
 2.906867  0.678078  0.074958  1.676117e-38
 2.952502  0.699631  0.095480  1.086282e-38
 1.340307  0.736568  0.099349  6.723405e-39
 1.380219  0.748404  0.074251  5.708893e-39
 1.667690  0.719295  0.097642  8.197461e-39
 1.732189  0.725301  0.065188  4.604007e-39
 1.762424  0.713530  0.061318  9.576439e-39
 2.494945  0.740844  0.090021  1.095034e-38
 2.529864  0.726029  0.073265  1.168862e-38
 2.571148  0.718964  0.075095  1.353288e-38
 2.644055  0.729887  0.094331  1.583743e-38
 2.684101  0.707786  0.093916  1.953427e-38
 2.741045  0.726122  0.084225  1.298731e-38
 2.779047  0.706113  0.096748  1.307950e-38
 2.821080  0.715713  0.089155  2.155535e-38
 2.976768  0.732113  0.060787  6.813801e-39
 1.283617  0.780743  0.071198  5.802172e-39
 1.314256  0.760948  0.089956  6.170953e-39
 1.429073  0.766050  0.069798  7.553534e-39
 1.476690  0.773056  0.068777  1.161412e-38
 1.510654  0.760005  0.091363  1.401337e-38
 1.806029  0.798997  0.074737  2.303800e-39
 2.488431  0.787153  0.081955  7.915823e-39
 2.522886  0.769385  0.075354  1.270312e-38
 2.565420  0.767075  0.079217  1.353288e-38
 2.617069  0.766180  0.081874  1.805445e-38
 2.682387  0.758569  0.082963  1.621451e-38
 2.710633  0.751440  0.099541  1.280039e-38
 2.820801  0.769640  0.075634  2.100182e-38
 2.867538  0.795753  0.073941  1.385095e-39
 2.927738  0.774508  0.068364  8.319215e-40
 1.647089  0.825610  0.095058  1.134005e-38
 2.444249  0.849719  0.059541  1.021349e-38
 2.483856  0.823317  0.071300  1.095178e-38
 2.521257  0.824693  0.076866  1.270564e-38
 2.569155  0.824595  0.082913  1.288788e-38
 2.641433  0.813092  0.072673  1.491907e-38
 2.666072  0.804984  0.069572  1.316663e-38
 2.835724  0.813791  0.077996  2.054265e-38
 2.851758  0.829385  0.061926  1.292900e-39
 1.183865  0.895671  0.075894  1.290774e-38
 1.217828  0.892292  0.072244  1.309177e-38
 1.262028  0.879473  0.081850  1.235420e-38
 1.328696  0.871375  0.089324  1.272083e-38
 1.369680  0.886875  0.092573  1.465729e-38
 1.849272  0.852016  0.072439  1.115494e-38
 1.904313  0.852113  0.067476  2.027216e-39
 2.472151  0.878953  0.074556  1.178081e-38
 2.518118  0.867945  0.071684  1.150747e-38
 2.563912  0.881852  0.069773  9.206911e-39
 2.627642  0.864334  0.076123  1.685590e-38
 2.673304  0.857827  0.073519  1.381309e-38
 2.733242  0.885374  0.068126  1.925479e-38
 2.777791  0.869430  0.072976  1.962357e-38
 2.827922  0.869655  0.083489  1.022938e-38
 1.127871  0.947238  0.070429  8.480541e-39
 1.158916  0.909020  0.069629  1.207762e-38
 1.395505  0.910031  0.051068  1.078833e-38
 1.427734  0.924796  0.061322  1.207943e-38
 1.463635  0.917022  0.090628  1.235638e-38
 1.977344  0.903279  0.058074  4.515780e-39
 2.436902  0.934301  0.065380  1.242690e-38
 2.471893  0.918948  0.080655  1.214995e-38
 2.528057  0.923225  0.075505  1.215211e-38
 2.568751  0.933099  0.071009  1.362905e-38
 2.624793  0.922628  0.075863  9.397079e-39
 2.673660  0.927396  0.077737  1.400218e-38
 2.705253  0.915931  0.068824  2.017494e-38
 2.798969  0.921262  0.076772  5.997040e-39
 1.115813  0.977290  0.064418  7.189080e-39
 1.257804  0.995961  0.073937  1.204319e-39
 1.587209  0.983191  0.060001  9.585450e-39
 2.427032  0.981724  0.071033  1.316446e-38
 2.466945  0.966728  0.085689  1.288751e-38
 2.535695  0.966420  0.072031  7.367702e-39
 2.569359  0.972080  0.075582  1.196773e-38
 2.622901  0.967577  0.075976  7.739374e-39
 2.673151  0.977213  0.072909  9.582198e-39
 2.744605  0.986418  0.054891  1.019195e-39
 2.775249  0.972862  0.074613  9.870699e-39
 1.264749  1.013090  0.068090  1.388351e-39
 1.325569  1.018216  0.057179  5.257316e-39
 1.365395  1.007749  0.052823  2.218837e-39
 1.414426  1.015315  0.061993  1.203962e-39
 1.469436  1.032474  0.068794  1.387267e-39
 1.548779  1.037399  0.085293  2.123027e-39
 2.369853  1.031808  0.089612  1.381055e-38
 2.428770  1.017669  0.060004  1.399530e-38
 2.480906  1.018438  0.078354  1.086138e-38
 2.582323  1.024514  0.089987  1.251729e-38
 2.630415  1.024838  0.073285  7.830847e-39
 2.672559  1.028357  0.078293  6.450440e-39
 2.709975  1.025212  0.072886  3.965848e-39
 2.781532  1.017017  0.079211  7.657282e-39
 1.163196  1.087058  0.087402  7.091843e-39
 1.240385  1.079345  0.075667  2.121224e-39
 1.515999  1.050805  0.071809  1.387267e-39
 1.567893  1.059007  0.069783  1.756053e-39
 2.340829  1.078465  0.080383  1.390310e-38
 2.433028  1.051843  0.055363  1.399565e-38
 2.536828  1.059274  0.075322  3.868603e-39
 2.582679  1.080202  0.071653  7.828683e-39
 2.616445  1.068213  0.084690  1.243413e-38
 2.673213  1.078719  0.073735  3.874013e-39
 2.715572  1.065286  0.078851  1.107065e-39
 2.781530  1.080466  0.079541  1.290846e-38
 1.149258  1.106998  0.095586  3.592011e-39
 1.167610  1.123396  0.079911  5.991270e-39
 1.240711  1.121489  0.074154  8.848618e-39
 2.347622  1.121162  0.081339  1.262176e-38
 2.372769  1.147641  0.085293  1.503221e-38
 2.441581  1.124316  0.064883  1.179019e-38
 2.461690  1.129652  0.060546  1.243953e-38
 2.539808  1.143266  0.070583  1.371981e-38
 2.578922  1.132837  0.074232  7.647176e-39
 2.627394  1.119909  0.071208  5.717927e-39
 2.668219  1.112772  0.078736  1.015227e-39
 2.727699  1.130770  0.074919  7.366615e-39
 2.763153  1.130497  0.078036  8.855462e-39
 2.807334  1.129870  0.086252  4.701614e-39
 2.281968  1.160875  0.071344  1.171426e-38
 2.332129  1.178865  0.077365  1.253209e-38
 2.373105  1.174805  0.071238  1.345043e-38
 2.423226  1.178294  0.070154  1.355420e-38
 2.469843  1.182007  0.074877  9.957481e-39
 2.517966  1.177123  0.073305  8.295796e-39
 2.565433  1.170930  0.081334  6.912497e-39
 2.624586  1.171028  0.074168  1.477289e-39
 2.665994  1.177766  0.077203  2.865274e-39
 2.727987  1.170527  0.076647  4.333192e-39
 2.782913  1.181914  0.073895  3.500537e-39
 2.291166  1.230394  0.084191  1.391466e-38
 2.343371  1.230790  0.081470  1.253932e-38
 2.365556  1.222778  0.070648  1.225984e-38
 2.427094  1.226830  0.073699  1.189359e-38
 2.478116  1.225078  0.073765  1.263332e-38
 2.529504  1.222891  0.083409  9.126283e-39
 2.575260  1.222238  0.069350  2.859862e-39
 2.619517  1.219460  0.073786  4.152044e-39
 2.673212  1.214343  0.082742  6.736772e-39
 2.721717  1.220435  0.068564  1.107787e-39
 2.771523  1.224860  0.059732  1.475485e-39
 2.810915  1.210700  0.072447  1.474761e-39
 2.277975  1.286459  0.068511  1.198650e-38
 2.338525  1.275890  0.073811  1.290738e-38
 2.366245  1.274858  0.073122  1.235565e-38
 2.414140  1.276997  0.071591  1.088160e-38
 2.475797  1.278572  0.077483  8.392323e-39
 2.529689  1.274419  0.085798  3.965490e-39
 2.578730  1.270308  0.077979  7.567610e-39
 2.634883  1.292409  0.067610  9.230325e-40
 2.680170  1.269336  0.073101  1.014867e-39
 2.732484  1.258971  0.076327  2.309937e-39
 2.223107  1.329291  0.078519  1.355671e-38
 2.269157  1.320420  0.085249  1.346091e-38
 2.317798  1.322138  0.070381  1.318505e-38
 2.372675  1.321013  0.075997  1.254221e-38
 2.418248  1.318732  0.075844  1.318722e-38
 2.477155  1.305881  0.081972  2.858419e-39
 2.537294  1.330587  0.051146  8.389797e-39
 2.583695  1.313799  0.063860  1.939708e-39
 2.606649  1.328350  0.079711  7.656559e-39
 2.662234  1.322460  0.057710  5.824553e-39
 2.194222  1.388012  0.084761  1.281086e-38
 2.227215  1.371844  0.064263  1.300174e-38
 2.267744  1.371637  0.070329  1.244749e-38
 2.326749  1.377758  0.074735  1.346272e-38
 2.359700  1.364572  0.070178  1.235745e-38
 2.584693  1.370954  0.066141  1.033024e-38
 2.615560  1.383302  0.067253  8.396294e-39
 2.655693  1.370063  0.092045  1.355996e-38
 2.736648  1.384915  0.070029  6.653586e-39
 2.196888  1.410758  0.052369  1.299524e-38
 2.235879  1.416444  0.075743  1.300174e-38
 2.272079  1.426112  0.072995  1.300030e-38
 2.315070  1.428298  0.076640  1.217126e-38
 2.371580  1.425250  0.076380  1.300174e-38
 2.463669  1.408495  0.067569  1.383114e-38
 2.520847  1.410365  0.067907  1.392297e-38
 2.583257  1.434303  0.095683  1.531132e-38
 2.607677  1.419571  0.079858  1.447976e-38
 2.656334  1.439877  0.069592  3.236586e-39
 2.786134  1.435616  0.083172  6.652147e-39
 2.160271  1.467809  0.084740  1.355599e-38
 2.221719  1.468071  0.074847  1.263188e-38
 2.268021  1.467116  0.074378  1.392334e-38
 2.372110  1.493561  0.068779  1.383042e-38
 2.525440  1.485965  0.063672  1.521949e-38
 2.584242  1.459156  0.060439  1.521949e-38
 2.686362  1.467233  0.077928  3.050024e-39
 2.788881  1.475116  0.069964  6.192250e-39
 2.804376  1.472480  0.089228  6.560312e-39
 2.187285  1.523947  0.069841  1.180320e-38
 2.227804  1.526387  0.071686  1.364675e-38
 2.250362  1.524744  0.096301  1.097416e-38
 2.309967  1.514677  0.092301  1.576906e-38
 2.381865  1.541602  0.062233  1.383078e-38
 2.537156  1.517797  0.066872  1.540352e-38
 2.704100  1.519238  0.065212  3.326981e-39
 2.818546  1.530470  0.081920  6.374842e-39
 1.985602  1.588079  0.096387  2.305071e-38
 2.176524  1.570416  0.076338  1.263079e-38
 2.228209  1.575643  0.077807  1.235457e-38
 2.290866  1.579915  0.071252  1.585982e-38
 2.336773  1.578926  0.093293  1.447688e-38
 2.368392  1.569081  0.072148  1.392261e-38
 2.675281  1.586875  0.062224  5.536061e-39
 2.701645  1.584997  0.069346  4.615552e-39
 2.822727  1.579617  0.075415  3.697199e-39
 2.008800  1.631735  0.083964  2.305071e-38
 2.080990  1.633397  0.065663  1.272443e-38
 2.134620  1.626771  0.075284  1.189539e-38
 2.175659  1.615445  0.068301  1.493713e-38
 2.224836  1.625148  0.079329  1.743037e-38
 2.266105  1.620338  0.074976  1.411025e-38
 2.306583  1.625882  0.080413  1.346237e-38
 2.683077  1.616055  0.055955  3.699718e-39
 2.723660  1.638425  0.088990  4.067064e-39
 2.766192  1.630768  0.087112  4.340401e-39
 2.818266  1.620037  0.073858  3.050028e-39
 2.850989  1.626975  0.088901  5.357804e-39
 2.031774  1.693474  0.082212  2.305071e-38
 2.082175  1.671220  0.070809  1.309321e-38
 2.131082  1.685689  0.062298  1.401553e-38
 2.171315  1.670594  0.080218  1.346127e-38
 2.214885  1.673354  0.081110  1.290738e-38
 2.271014  1.687766  0.066499  1.253860e-38
 2.307508  1.671704  0.062404  2.400692e-39
 2.669153  1.660920  0.069974  4.435847e-39
 2.704016  1.662935  0.071820  4.252536e-39
 2.031936  1.738086  0.088832  2.305071e-38
 2.052548  1.710410  0.052259  2.305071e-38
 2.111027  1.740222  0.058870  1.373930e-38
 2.180520  1.727713  0.076048  1.272299e-38
 2.248395  1.701570  0.085020  1.263080e-38
 2.256307  1.718762  0.060305  1.253896e-38
 2.055318  1.755167  0.063353  2.305071e-38
 2.112490  1.776651  0.064120  1.327725e-38
 2.179436  1.782103  0.074869  1.281518e-38
 2.048749  1.846899  0.051699  1.318324e-38
 2.080524  1.822262  0.067756  1.585872e-38
 2.112365  1.815737  0.072507  1.309213e-38
 2.181794  1.835344  0.074067  1.299921e-38
 2.075212  1.866763  0.073544  1.327472e-38
 2.116041  1.873411  0.080513  1.502860e-38
 2.185360  1.872971  0.087858  1.299921e-38
 2.204741  1.853417  0.071527  1.299921e-38
 0.885398  1.902807  0.050487  7.372397e-39
 0.905526  1.938867  0.068083  9.586173e-39
 1.997613  1.926920  0.078948  1.327869e-38
 2.047729  1.932211  0.082459  1.327869e-38
 2.081712  1.925696  0.068651  1.595705e-38
 2.115611  1.918806  0.082062  1.309322e-38
 0.946361  1.978456  0.070079  9.309587e-39
 0.963445  1.954781  0.059508  8.663494e-39
 1.985889  1.957704  0.085715  1.327869e-38
 2.083168  1.964497  0.077297  1.189648e-38
 2.121671  1.982270  0.087076  1.244496e-38
 2.156011  1.978649  0.059623  1.438251e-38
 2.767620 -1.672475  0.125836  1.743109e-38
 2.818156 -1.683660  0.135613  1.521911e-38
 2.666620 -1.639571  0.124653  1.752292e-38
 2.711457 -1.642841  0.116155  1.761512e-38
 2.838440 -1.615231  0.125338  6.924031e-39
 2.783705 -1.587987  0.148185  1.019561e-39
 2.843322 -1.558024  0.118699  9.506588e-39
 2.884263 -1.570385  0.126685  2.140996e-39
 2.925032 -1.557203  0.135892  1.126474e-39
 2.743621 -1.520195  0.119979  8.096976e-39
 2.936645 -1.527669  0.119521  1.220115e-39
 2.972492 -1.524204  0.131386  9.424419e-40
 2.762820 -1.475073  0.126050  8.374640e-39
 2.810447 -1.466304  0.118866  9.205114e-39
 2.933690 -1.484345  0.143197  1.128999e-39
 2.970038 -1.480256  0.132769  1.128278e-39
 2.833328 -1.407241  0.128918  9.296588e-39
 2.863055 -1.419170  0.109521  1.077170e-38
 2.845350 -1.356495  0.126178  9.847956e-39
 2.875161 -1.332928  0.136878  8.833811e-39
 2.911569 -1.329886  0.108782  1.077098e-38
 2.981484 -1.324673  0.123722  9.665005e-39
 2.990092 -0.737911  0.135383  1.013211e-38
 2.845496 -0.650412  0.130295  1.105046e-38
 2.891387 -0.682039  0.116271  8.655184e-39
 2.800630 -0.609187  0.137250  1.242942e-38
 2.772085 -0.575566  0.125715  1.279603e-38
 2.729644 -0.503793  0.115129  1.288643e-38
 2.753992 -0.513203  0.148017  1.279495e-38
 2.745411 -0.463108  0.123834  1.279459e-38
 2.748769 -0.404392  0.124684  1.297934e-38
 2.747788 -0.358270  0.129082  1.279459e-38
 2.732249 -0.321582  0.105346  1.279423e-38
 2.754182 -0.315650  0.138330  1.261056e-38
 2.879325 -0.322999  0.139656  9.021799e-39
 2.733854 -0.250647  0.116261  1.316337e-38
 2.772146 -0.273933  0.129623  1.178695e-38
 2.839938 -0.282542  0.115696  1.215248e-38
 2.884091 -0.266979  0.137969  1.288787e-38
 0.541057 -0.210412  0.133085  7.565452e-39
 2.738325 -0.201692  0.121725  1.288715e-38
 2.875122 -0.244265  0.120248  1.279567e-38
 0.494878 -0.161853  0.111600  7.288864e-39
 0.521802 -0.186216  0.113514  7.380701e-39
 2.733156 -0.154487  0.135816  1.242797e-38
 2.873412 -0.177725  0.129443  1.297934e-38
 0.469213 -0.128138  0.111543  6.366547e-39
 0.565266 -0.130121  0.125606  3.975962e-39
 0.608071 -0.103190  0.147362  4.901162e-39
 2.713606 -0.142539  0.108247  1.252053e-38
 2.868156 -0.101521  0.142527  1.316338e-38
 2.992107 -0.122746  0.122938  8.323564e-39
 0.469027 -0.070967  0.121072  6.181437e-39
 0.638178 -0.076158  0.138304  4.070319e-39
 0.756756 -0.051519  0.133855  5.074724e-39
 2.710542 -0.069400  0.120404  1.215356e-38
 2.794548 -0.053598  0.104825  1.418186e-38
 2.831878 -0.065608  0.116708  1.325702e-38
 2.865203 -0.056771  0.116762  1.197676e-38
 2.914158 -0.074669  0.124999  1.225154e-38
 2.959897 -0.077116  0.134326  1.096694e-38
 0.471589 -0.035899  0.109612  7.932795e-39
 0.510411 -0.043275  0.137470  1.125220e-38
 0.634153 -0.035961  0.116873  5.634757e-39
 0.664818 -0.015038  0.129914  6.003181e-39
 0.733862 -0.036108  0.132943  4.433682e-39
 0.775590 -0.026674  0.125695  4.801385e-39
 0.827790 -0.010580  0.127994  4.153121e-39
 0.882777 -0.034424  0.125204  3.138257e-39
 2.679466 -0.019841  0.140893  1.205847e-38
 2.784321 -0.021301  0.115747  1.307263e-38
 2.820911 -0.029382  0.127478  1.381091e-38
 2.882268 -0.043868  0.120287  1.281554e-38
 2.924081 -0.014656  0.126470  1.215502e-38
 2.977219 -0.021386  0.116441  1.162421e-38
 0.730861  0.014207  0.136807  7.018412e-39
 0.786401  0.015251  0.124169  5.268844e-39
 0.815810  0.007403  0.133793  6.467400e-39
 2.668867  0.025138  0.136437  1.233506e-38
 2.741177  0.008356  0.112167  1.215031e-38
 2.786318  0.030090  0.118137  1.399422e-38
 2.818236  0.021942  0.122031  1.381019e-38
 2.886840  0.011889  0.130299  1.418223e-38
 2.932027  0.011093  0.119852  1.235203e-38
 0.515467  0.088594  0.110295  2.183915e-38
 0.797662  0.058735  0.101476  9.139636e-39
 0.830797  0.079589  0.104528  9.693527e-39
 2.676322  0.064223  0.118739  1.242689e-38
 2.738546  0.061803  0.118615  1.215031e-38
 2.780052  0.070941  0.125684  1.390203e-38
 2.823514  0.082410  0.118287  1.316627e-38
 2.896246  0.086433  0.149124  1.261237e-38
 2.912066  0.078375  0.115676  1.159858e-38
 2.950408  0.070399  0.126917  1.123449e-38
 0.525884  0.133584  0.130802  2.304634e-38
 2.694232  0.124647  0.130505  1.261164e-38
 2.733500  0.120349  0.127394  1.297863e-38
 2.766981  0.124128  0.119619  1.362616e-38
 2.811106  0.124140  0.124253  1.353505e-38
 2.871701  0.138099  0.119777  1.611834e-38
 2.915695  0.103134  0.115921  1.638951e-38
 2.690768  0.188155  0.121711  1.297934e-38
 2.724467  0.172933  0.133646  1.288751e-38
 2.768087  0.163047  0.127831  1.325738e-38
 2.813469  0.168880  0.105212  1.510165e-38
 2.881442  0.189880  0.128198  1.722829e-38
 2.683991  0.229063  0.127255  1.353324e-38
 2.725426  0.224743  0.127990  1.307262e-38
 2.771332  0.221062  0.134916  1.417933e-38
 2.804936  0.222116  0.116017  1.537751e-38
 2.879727  0.234933  0.130398  1.685662e-38
 2.920303  0.225757  0.126212  1.417969e-38
 1.382016  0.289301  0.125810  1.382572e-38
 1.411450  0.270997  0.129400  1.235059e-38
 2.685416  0.280975  0.131040  1.298006e-38
 2.724647  0.277813  0.129896  1.353324e-38
 2.757820  0.270500  0.135395  1.381163e-38
 2.840107  0.270674  0.130497  1.547224e-38
 2.868671  0.266594  0.126024  1.953318e-38
 0.346947  0.346582  0.105644  4.516863e-39
 1.367428  0.324404  0.133568  1.465584e-38
 2.683144  0.330718  0.129637  1.251873e-38
 2.711702  0.328722  0.125575  1.344069e-38
 2.795069  0.321812  0.122291  1.390166e-38
 2.826303  0.314930  0.134086  1.547151e-38
 2.964061  0.348722  0.119282  1.279604e-38
 1.465750  0.393654  0.108192  2.034080e-39
 2.634479  0.385719  0.116672  1.242690e-38
 2.679075  0.379586  0.125476  1.307263e-38
 2.718742  0.367377  0.131055  1.353216e-38
 2.778175  0.363946  0.112562  1.537860e-38
 2.817192  0.363586  0.137981  1.676369e-38
 2.939229  0.384827  0.119650  1.261129e-38
 0.237636  0.405027  0.127473  1.846442e-39
 0.420809  0.408073  0.137730  5.442420e-39
 0.459929  0.424460  0.143794  4.062736e-39
 1.483159  0.431552  0.127225  1.206490e-39
 2.629902  0.429458  0.128061  1.141312e-38
 2.666651  0.425272  0.122846  1.307227e-38
 2.738080  0.411721  0.123837  1.298078e-38
 2.787010  0.423959  0.123571  1.427297e-38
 2.819004  0.417002  0.141259  1.519889e-38
 2.884941  0.447727  0.131607  8.746291e-39
 2.956042  0.434894  0.126021  1.288788e-38
 0.244674  0.473658  0.110523  1.017394e-39
 0.524702  0.457780  0.140863  4.062734e-39
 0.558633  0.468742  0.137108  4.431514e-39
 0.610495  0.495549  0.120009  5.995960e-39
 1.493596  0.460474  0.129173  1.298680e-39
 1.502938  0.488070  0.144435  1.574186e-39
 2.577694  0.480958  0.107241  1.381055e-38
 2.630168  0.477364  0.124747  1.288932e-38
 2.672040  0.477707  0.121771  1.362472e-38
 2.715875  0.459738  0.130962  1.427044e-38
 2.761603  0.469093  0.117564  1.916476e-38
 2.889693  0.499064  0.137608  1.262357e-38
 2.927106  0.478384  0.117748  1.297971e-38
 2.967110  0.485532  0.109151  8.018123e-39
 0.241792  0.512903  0.120856  1.388705e-39
 0.646913  0.502941  0.100540  6.915391e-39
 1.529185  0.540540  0.112348  1.297598e-39
 2.579508  0.529361  0.133922  1.288896e-38
 2.622855  0.527890  0.122542  1.316519e-38
 2.675615  0.525493  0.124832  1.399566e-38
 2.745389  0.524284  0.122363  1.593466e-38
 2.779597  0.520654  0.119975  1.325737e-38
 2.873850  0.530830  0.131258  1.547369e-38
 2.911639  0.511319  0.126104  1.476925e-39
 2.950585  0.504696  0.103260  1.271505e-38
 1.544339  0.580570  0.127052  5.164393e-39
 1.558831  0.569622  0.103159  1.111395e-39
 2.541565  0.580817  0.111387  1.270313e-38
 2.580991  0.578775  0.124277  1.325882e-38
